ncols         220
nrows         87
xllcorner     -116
yllcorner     35.3
cellsize      0.05
NODATA_value  -9999
1815 1807 1816 2030 1942 1858 1858 2068 1957 2062 1892 1891 1891 1919 2149 2336 2111 2011 1925 1925 1925 2224 2407 2020 1834 1909 2146 2717 2411 2038 1837 1837 1837 2048 1910 2026 2151 2276 2494 2199 2011 1798 1611 1611 1611 1611 1611 1671 1939 1611 1611 1611 1611 1611 1611 1611 1611 1611 1651 1706 1614 1611 1611 1611 1611 1611 1611 1611 1611 1611 1611 1611 1611 1611 1611 1767 2053 2033 1622 1718 1748 1950 1615 1648 1835 2503 2384 1833 1794 2164 2165 1882 1931 2133 2810 2901 2734 2698 2495 2255 2076 1897 1829 1717 1828 1787 1891 1824 1823 1808 1885 2072 2678 2993 2793 2560 2398 2379 2115 1675 1675 1675 1948 2133 2127 2082 2011 1950 2027 1767 1981 2072 2042 1893 1889 2057 2032 2220 2314 2377 2390 2268 2377 2595 2621 2339 2340 2678 2620 2517 2499 2434 2434 2551 2493 2560 2499 2555 2499 2302 2451 2586 2194 2011 1977 1943 1889 2172 1888 1889 2168 2088 2798 2966 3092 2855 2926 2338 2338 2507 2413 2338 2338 2338 2338 2338 2498 2499 2423 2423 2423 2624 2859 3082 3082 3265 3358 3595 2864 2834 2925 3352 3003 3640 3657 3814 3694 3579 3596 3180 2565 2546 2377 2255 2224 2224 2067 1837 1743 1701
1818 1870 1915 2133 2678 2098 1858 1858 1858 1975 1891 1891 1891 1921 2011 2194 2050 1987 1925 1925 1925 2504 1954 1839 1834 1853 2019 2634 2510 1837 1837 1837 1837 1837 1893 1993 2085 1966 1986 1960 1800 1631 1611 1611 1611 1924 1862 1829 1611 1611 1611 1611 1611 1611 1611 1611 1611 1611 1839 1772 1864 1633 1611 1611 1611 1611 1611 1611 1611 1611 1611 1611 1611 1611 1611 1736 2010 1622 1622 1636 1629 1706 1688 1640 2022 2457 2511 1808 1739 2001 1951 1761 1875 2339 3048 2794 2743 3013 2743 2379 2166 1937 1951 1727 1707 1704 1675 1728 1768 1747 1822 1949 2220 2374 2699 2824 2562 2437 2438 1696 1675 2255 2133 2264 2247 2133 2133 2125 2077 1872 2044 2043 2133 2073 2072 2071 2207 2051 2273 2491 2560 2490 2559 2194 2486 2329 2560 2298 2567 2133 2560 2499 2437 2434 2438 2438 2438 2476 1859 2012 2499 2639 2442 1947 1769 1767 1768 1808 1613 1346 1563 1623 1623 2338 2338 2338 2338 2338 2398 2338 2338 2338 2338 2362 2338 2338 2656 2782 2865 2511 2753 2994 3127 3226 3400 3082 3822 3151 2834 2834 2852 3003 3555 3102 3663 3597 3560 3901 3340 2926 2891 3122 2675 2402 2377 2319 2133 1889 1762 1698
1888 1950 2011 2311 2530 1858 1858 1858 1858 1858 1955 1953 1937 1907 2132 2210 2261 2162 1925 1963 2073 2246 1869 1834 1856 1898 2146 2384 2751 2430 1837 1837 1837 1837 1929 2254 2099 2155 1866 1782 1611 1611 1611 1611 1611 1767 1789 1611 1611 1611 1611 1611 1611 2068 1682 1611 1611 1611 1788 1795 1877 1812 1611 1611 1611 1611 1611 1611 1611 1611 1611 1611 1611 1611 1611 1611 1887 1665 1622 1622 1622 1762 1622 1622 2033 2022 2389 1767 1706 1697 1746 1817 1969 2194 2915 2872 2794 2935 2865 2743 2409 2078 1885 1711 1707 1658 1658 1711 1741 1707 1719 1819 1829 2078 2925 2463 2762 2717 2111 1346 1941 2317 2465 2260 2224 2125 2125 2255 2154 2164 2163 2128 2043 2255 2225 2306 2316 2139 2202 2436 2621 2102 2173 2143 2256 2031 2194 2508 2465 2148 2133 2194 1828 2499 2033 2515 2499 2520 1759 2503 2370 2513 1950 1346 1346 1346 1346 1346 1346 1688 2072 2138 2191 2499 2338 2495 2575 2857 2804 2377 2348 2841 2591 3003 3142 2597 2499 3107 3186 3186 3154 3357 2994 2994 3473 3464 3528 3106 3365 2882 2964 3261 3596 3353 3945 3293 3118 3311 3372 3009 3062 2934 3053 2619 2478 2386 2238 2072 1744 1674
2119 2140 2329 2050 1889 1858 1858 1858 1858 1887 1988 2069 2072 2072 2134 2181 2140 2145 2132 2161 2257 2382 1863 1859 1880 1934 2301 2291 2766 2212 1837 1837 1837 1837 2248 2652 2354 2219 1740 1807 1611 1611 1611 1651 1716 1894 1808 1611 1611 1611 1611 1611 1611 1611 2246 1650 1611 1611 1719 1804 1663 1611 1611 1611 1611 1611 1611 1611 1611 1611 1611 1611 1611 1611 1611 1611 2185 1691 1622 1622 1622 1622 1622 1672 2320 2278 2437 2316 1677 1706 1764 1926 2088 2755 2991 2822 3022 2666 2865 2692 2438 2080 1890 1829 1768 1658 1658 1658 1674 1646 1646 1650 1731 2267 2673 2230 2338 2845 2363 1346 1528 2133 2112 2261 2377 2254 2264 2125 2125 2194 2194 2289 2255 2289 2412 2438 2363 2435 2311 2011 2168 2011 1921 2097 1950 1879 1974 2315 2499 2317 2491 2133 2049 1781 2105 2377 2335 2011 1706 1705 1346 1346 1346 1346 1858 1809 1767 1848 1904 2209 2127 2133 2389 2407 2338 2338 2338 2338 2338 2455 2987 3203 2730 2591 2967 2560 3346 3042 3489 3305 3584 3515 3158 2994 3206 3535 3231 3106 3523 2897 3328 3306 3413 3484 3267 3118 3168 3228 3535 2743 2718 2672 2585 2797 2556 2400 2620 2236 1797 1725
2562 2293 2137 2373 1858 1858 1947 1858 1868 1933 2121 2174 2103 2135 2086 1962 1990 2072 2194 2446 2384 2245 2557 1859 1868 1987 2163 2530 2972 2315 1837 1837 1837 1837 2176 2778 2472 2263 2057 1667 1611 1611 1611 1611 1811 1896 1794 1611 1611 1611 1611 1611 1611 1611 2265 1869 1681 1611 1611 1690 1624 1611 1611 1611 1611 1611 1611 1611 1611 1611 1611 1611 1611 1611 1611 1645 2082 1681 1622 1622 1622 1630 1631 1765 2194 2270 2072 2316 1676 1690 1762 2018 2971 3148 2910 2798 2798 2456 2438 2804 2194 2011 1946 1768 1747 1714 1658 1658 1658 1612 1635 1646 1751 1776 2254 2440 2139 2468 2500 1653 1346 1950 2540 2560 2392 2254 2283 2316 2168 2163 2233 2194 2346 2379 2468 2225 2296 2542 2118 1828 1828 1740 2097 1967 1646 1767 2042 2109 2379 2257 2462 2255 2065 2164 1676 1706 2194 2580 1973 1346 1346 1901 2477 2720 2594 2186 2046 1878 2072 2240 2397 2454 2580 2918 2338 2338 2338 2338 2338 2338 2875 2621 3230 3525 3474 3352 3494 2933 3086 3694 3308 3742 3211 2994 2994 2994 3287 3640 3877 3105 3169 3667 3284 3169 3250 3070 2900 2900 3230 2654 2654 2595 2452 2317 2334 2169 2169 2304 1905 1886
2316 2194 2013 1858 1858 1858 1905 2155 1913 2011 2167 2256 2136 2171 1970 1962 1962 2179 2432 2182 2333 2048 2097 2594 1864 1957 2212 2289 3392 2186 1837 1837 1837 1837 2421 2615 2503 2556 2152 1705 1611 1611 1611 1611 1611 1789 1611 1611 1611 1611 1611 1611 1611 1844 2909 2309 1703 1611 1611 1611 1611 1702 1611 1611 1611 1611 1611 1611 1611 1611 1611 1611 1611 1611 1611 2193 2147 2270 1693 1622 1622 1622 1744 2022 2438 2499 2194 1709 1676 1705 1942 2657 2837 3173 3045 2888 3083 2791 2034 2120 2064 1890 1785 1768 1707 1707 1669 1658 1665 1688 1592 1573 1582 1646 2068 2621 1892 1978 1794 1385 1346 1889 2353 2560 2681 2509 2457 2255 2163 2316 2320 2316 1997 1976 2125 2257 2031 2059 1950 1828 1566 1563 1585 1538 1581 1934 1855 2045 2477 2407 2072 2316 2366 1832 1733 1676 2143 1346 1346 1828 2233 3053 3228 3291 2961 2511 2201 2192 2163 2677 2472 2751 2682 2754 2480 2338 2338 2338 2338 2338 2338 2338 2338 2338 2611 3010 3048 2933 3224 3831 3701 3211 3907 3421 3054 3501 3413 3504 3874 3241 3694 3709 3295 2957 2900 2900 3023 3172 3642 3498 2806 2550 2255 2254 2169 2169 2195 2169 2243 2255
1989 2011 1858 1860 1858 1888 2080 1983 1920 1980 2053 2244 2240 2078 1965 1962 1962 2072 2461 2169 2179 2073 1961 1889 1887 2284 2279 2639 2889 3334 2165 1837 1837 1837 2346 2603 2496 2242 2484 1650 1611 1611 1611 1611 1611 1630 1839 1611 1611 1611 1611 1611 1611 1993 2240 1807 1647 1611 1611 1611 1611 1611 1611 1611 1611 1611 1611 1611 1611 1611 1611 1611 1611 1711 2011 2287 2356 1949 1631 1687 1797 1699 1641 1859 2316 2141 1709 1676 1684 1794 2212 2750 2865 2743 2697 2194 2749 2644 2441 2003 1821 1768 1768 1768 1707 1703 1768 1754 1768 1873 1585 1584 1524 1524 1880 1890 1828 1753 1646 1346 1524 2314 2229 2229 2682 2662 2499 2438 2377 2561 2448 2143 1976 2193 2130 2053 1885 1645 1612 1588 1602 1524 1524 1524 1536 1611 1586 1645 1897 2011 2334 1950 1850 2016 1889 1615 1346 1346 1828 2438 2343 3020 2937 2934 2855 2646 2318 2343 2302 2187 2760 2984 2836 2697 2447 2338 2338 2351 2338 2338 2477 2438 2593 3058 2743 2611 3169 2933 3107 3107 3655 3579 3618 3137 3108 3458 3352 3483 3596 3579 3779 3657 3007 2930 2900 2900 2900 2969 3063 3510 3430 2959 2966 2367 2405 2289 2169 2377 2377 2261
1858 1858 1858 1944 1970 2031 2002 1950 1928 1998 2426 2466 2434 2211 2143 1962 1962 1962 2319 2169 2133 2191 2041 1923 1941 2573 2559 2823 2780 3355 2355 1837 1837 1837 1846 2411 3439 3135 2244 1726 1611 1611 1611 1611 1611 1624 1804 2023 1637 1611 1611 1611 1611 2035 1794 1702 1635 1611 1611 1611 1611 1611 1611 1611 1611 1611 1611 1611 1611 1611 1611 1611 1611 1690 2017 2184 2582 1711 1631 1786 2166 1891 1641 1641 1861 2163 1676 1676 1738 2227 2994 3063 2961 2601 2255 2123 2095 2011 1948 1951 1772 1768 1768 1796 1828 1897 1829 1821 1950 1646 1585 1585 1524 1524 1524 1821 1773 1533 1556 1346 1754 1889 2433 2620 2603 2716 2580 2404 2558 2499 2388 2213 2003 1847 1750 1646 1615 1566 1560 1524 1540 1524 1524 1524 1524 1524 1524 1551 1706 2110 2198 1950 1862 1746 1659 1346 1346 1706 1749 2449 2328 2168 2184 2168 2255 2335 2318 2499 2438 2377 2486 2499 2718 3023 2793 2529 2338 2728 2884 2642 2338 2338 2515 2460 2926 3239 3291 2933 2933 3290 3766 3395 3483 2986 3046 3235 3779 3749 3826 3233 3216 3078 2963 2900 2900 2900 2901 2828 2985 3352 3064 3160 3445 3169 2702 2323 2169 2169 2467 2318
1858 1858 1858 1864 2072 2053 1972 1944 2064 2657 2690 2523 2329 2459 2058 1962 1962 1962 2235 2118 2078 2301 2095 1965 2072 2323 2692 3137 2394 2216 1837 1837 1837 1838 2617 2661 2728 2798 2832 2085 1611 1611 1611 1611 1659 1874 2422 2011 1688 1611 1611 1611 1650 1863 2049 1731 1611 1611 1611 1611 1611 1611 1611 1611 1611 1611 1611 1611 1611 1611 1611 1611 1611 1615 1637 1834 1955 1651 1631 1810 2085 1909 1641 1641 1689 1801 1747 1676 2706 2827 2926 3111 3169 2872 2686 2382 2736 2531 1950 1808 1830 1768 1768 1768 1862 1996 2084 2134 2213 2109 1647 1585 1524 1524 1524 1877 1707 1640 1346 1346 1760 1856 2194 2361 2651 2804 2468 2377 2612 2485 2133 2229 1916 1747 1684 1541 1564 1524 1524 1524 1554 1524 1524 1524 1524 1524 1524 1524 1524 1645 2131 2071 1862 1890 1346 1346 1706 1791 1767 1830 1787 1912 2072 2268 2314 2377 2391 2668 2633 2692 2803 2634 2991 3387 2640 2343 3006 3670 2895 2740 2682 2748 2460 2460 2741 2756 2933 3511 3235 3442 3862 3352 3101 2925 3002 3352 3486 3808 3456 3290 3220 2925 2959 2925 2951 2925 2906 2828 2828 3352 3272 3230 3057 2791 2529 2194 2169 2256 2582 2693
1882 1867 1884 1942 2040 2051 1889 1975 2003 2289 2374 2375 2555 2403 2055 1962 1962 2011 2131 1995 2050 2288 2576 2196 1982 2026 2547 2672 2493 1965 1837 1837 1837 2034 2725 2511 2529 2200 2113 1747 1611 1611 1611 1729 1903 1950 2058 1868 1781 1611 1611 1611 2276 2172 2014 1668 1611 1611 1611 1611 1611 1611 1611 1611 1611 1611 1611 1611 1611 1611 1611 1611 1611 1611 1611 1743 1754 1985 1825 2010 1878 2042 1641 1641 1641 1671 1641 2001 2312 2467 2650 2899 2633 2372 2503 2499 2558 2562 1874 1768 1768 1768 1768 1768 1768 1768 1828 2280 2275 1767 1646 1645 1640 1524 1553 1862 1707 1581 1346 1524 1800 1801 2103 2275 2650 2783 2468 2430 2316 2072 2072 1767 1727 1771 1545 1524 1524 1524 1524 1524 1346 1346 1346 1346 1346 1346 1524 1524 1524 1553 1727 2011 1877 1782 1346 1692 1763 1767 1767 1767 1960 2026 2363 2926 2704 2919 2926 2682 2633 3048 2968 2682 2709 2913 3105 2805 3365 3047 3276 3284 2712 2842 2742 2461 2948 3047 3176 3314 3725 3657 3962 3572 2921 2867 2986 3202 3473 3810 3454 3171 3043 2969 2864 2850 2986 2870 2828 2828 2828 3298 2704 2688 3322 2531 2503 2169 2468 2265 2438 2732
1906 1935 1991 2010 1950 1858 1885 1951 1827 1855 2102 2174 2456 2204 2278 2071 2001 1950 1993 1928 2078 2681 2587 2195 2020 2012 2201 2498 2501 2063 1837 1837 2151 2176 2284 2011 1889 1969 1758 1611 1611 1611 1611 1909 1883 1826 1784 1996 1904 1611 1611 1611 2470 2063 1860 1650 1611 1611 1611 1611 1611 1611 1611 1611 1611 1611 1611 1611 1611 1611 1611 1611 1611 1611 1611 1611 1646 1953 1979 1898 1905 1927 1641 1641 1641 1641 1696 2016 2681 2404 2883 3170 2858 2579 2133 2133 2411 1950 1814 1768 1768 1768 1768 1768 1768 1793 1832 1889 1829 1769 1781 1643 1524 1524 1524 1970 1784 1555 1346 1582 1829 1804 2011 2008 2361 2219 2073 2135 2167 2255 2072 1950 1580 1524 1524 1524 1524 1524 1346 1346 1346 1689 1696 1823 1754 1346 1346 1346 1524 1524 1524 1524 1873 1346 1346 1970 2190 1847 1767 1884 2446 2804 2902 3096 3048 3172 3169 2986 2742 2681 2567 2379 2377 2434 2661 2865 2902 3048 3525 3566 3572 3454 2696 2885 3395 2948 3578 3901 3637 3901 3661 3291 3270 2864 2925 3230 3671 4039 3271 3299 2969 2925 2986 2987 2850 2887 2828 2864 3101 2987 2894 2677 3223 2681 2195 2389 2499 2388 2377 2718
2096 2303 2319 2032 1981 1828 2015 1800 1814 1913 2316 2245 2567 2386 2557 2253 2101 1952 1915 1950 2013 2389 2886 2199 2021 2027 2142 2436 2323 2023 1840 1837 1837 2585 2182 1912 1815 1719 1611 1611 1611 1611 1611 1696 1792 1675 1710 1821 2187 2179 1611 1611 1857 2124 1770 1611 1611 1611 1611 1611 1611 1611 1611 1611 1611 1611 1611 1611 1611 1611 1611 1611 1611 1611 1611 1611 1732 2027 2539 1870 1870 1890 1669 1641 1641 1672 1903 2316 2316 2568 2816 2898 3034 2577 2937 2732 1932 1844 1800 1768 1768 1768 1768 1768 1768 1864 1890 1767 1767 1872 1712 1524 1524 1524 1524 1818 1524 1524 1346 1524 1524 1524 1950 2115 2087 2194 2010 1803 1764 1885 1550 1597 1524 1524 1524 1524 1524 1524 1346 1643 1675 1679 1859 1981 2108 1767 1524 1346 1346 1346 1346 1346 1346 1346 1950 2194 3047 2339 2459 2994 2996 2942 3089 3106 3213 2926 3108 3030 2789 2887 2439 2568 2377 2377 2610 2571 2571 2571 2949 3217 3883 3500 3278 3088 3252 3230 3291 3814 3501 3742 3291 3469 2898 2860 2827 3101 3535 3324 3149 2984 2865 2803 2803 2803 2854 2784 2742 2790 2906 3047 2742 2677 2787 2622 2516 2742 2620 2617 2397 2681
1960 2194 2496 2272 1888 1761 1800 1883 1794 1889 2324 2407 2546 2194 2265 1993 2005 1967 1869 1844 1805 2375 2607 2134 2036 2053 2156 2380 2179 1867 1837 1837 1920 2306 2915 2869 2164 1839 1611 1611 1611 1611 1611 1611 1611 1611 1645 1993 2095 2230 2257 1664 1611 1611 1611 1611 1611 1611 1611 1611 1611 1626 1726 1715 1611 1611 1611 1611 1611 1611 1611 1611 1611 1611 1611 1642 1901 2367 2647 1870 1958 2228 1829 1641 1689 1707 2027 2438 2730 2906 3192 2913 2804 2550 2550 2875 2535 2004 1841 1799 1798 1768 1768 1768 1902 1852 1767 1767 1767 1807 1982 1524 1653 1524 1524 1524 1524 1524 1346 1524 1524 1889 1808 1911 1706 1867 1889 1748 1693 1524 1524 1524 1524 1524 1524 1524 1524 1346 1346 1534 1768 1856 1889 2033 2054 2072 1889 1782 1524 1524 1524 1524 1540 1584 1995 2438 3046 3108 3048 3230 3266 3230 3033 2933 2860 3108 3266 3192 2729 2682 2599 2377 2377 2377 2571 3566 3385 2804 3446 3197 3535 3683 3570 3990 3088 3577 3560 3756 3501 3821 3291 3695 3728 3352 2768 2768 3535 3425 3229 3225 2926 2769 2796 2770 2804 2740 2726 2681 2671 2777 2809 2642 2560 2649 2560 2796 2712 2621 2665 2726
2007 2133 2321 2421 1951 1825 1717 1786 1706 1828 2011 2745 2517 2309 2140 1949 1891 1926 1807 1758 1772 1876 2258 2445 2134 2188 2278 2538 2144 1889 1837 1837 1876 2358 3600 2697 2331 1911 1659 1611 1611 1611 1611 1611 1611 1611 1612 1812 2045 2238 2385 1745 1697 1611 1638 1611 1611 1611 1611 1611 1611 1935 1648 1611 1611 1611 1611 1611 1611 1611 1611 1611 1611 1611 1611 1939 2438 2817 2632 1956 1870 1714 1641 1641 1641 1768 1999 2195 2460 2499 2901 2834 2706 2561 2643 2220 1950 1944 1878 1888 1844 1785 1812 1889 1837 1839 1776 1767 1767 1767 1687 1524 1585 1524 1524 1524 1524 1346 1346 1524 1524 1580 1582 1706 1552 1581 1581 1596 1584 1524 1524 1524 1524 1524 1524 1346 1346 1346 1527 1645 2055 2047 2011 2072 2072 2065 2064 2021 1675 1737 1562 1524 1524 1524 1592 1909 2873 3050 3126 2743 2660 2350 2588 2519 2735 2954 2782 3025 2545 2161 2433 2803 2630 2377 2478 2702 3210 3362 3078 3144 3327 3491 3751 3961 3840 3504 3293 3293 3802 3628 3840 3595 3642 3672 3840 2768 2873 3615 3708 3168 2928 2769 2769 2769 2769 2742 2713 2671 2671 2682 3102 2639 2564 2560 2695 2733 2743 2777 2751 2659
2051 2071 2051 2084 2096 1795 1706 1755 1633 1686 1845 2128 2442 2169 2070 1950 1889 1925 1766 1730 1763 1850 2724 2524 2134 2183 2367 2558 2797 1892 1837 1837 1837 2305 3475 2707 3163 2251 1829 1671 1611 1796 1737 1978 1761 1611 1611 1742 1853 1882 2184 1746 1834 1611 1611 1611 1611 1611 1611 1611 1771 1681 1646 1611 1611 1611 1611 1611 1611 1611 1611 1611 1611 1611 1647 1828 2728 2865 2743 2438 1955 1706 1641 1641 1828 1767 1829 2123 2252 2255 2513 2680 2550 2204 2036 2200 1905 1920 1889 1889 1805 1819 1880 1852 1878 1832 1950 1950 2011 1934 1785 1524 1524 1524 1524 1524 1524 1346 1524 1524 1524 1524 1524 1524 1524 1524 1562 1524 1524 1524 1524 1524 1524 1524 1524 1346 1524 1524 1719 1840 2209 2122 2130 2133 2133 2490 2462 2258 2157 1889 1767 1524 1524 1524 1663 1828 2191 3107 2721 2309 2084 2082 2139 2217 2125 2369 2625 2377 2520 2161 2204 2290 2377 2377 2377 2514 2514 2962 3573 3284 2989 2864 3170 3688 3698 3573 3463 3307 2986 3125 3636 3700 3963 4157 3474 3718 2684 2768 3006 3005 2986 2803 2769 2773 2772 2803 2761 2742 2671 2671 2671 2621 2649 2770 2575 2636 2742 2768 2841 2912
2045 1954 1976 2053 2009 1766 1696 1645 1598 1666 1915 2491 3351 2410 2316 2011 1889 1962 1722 1704 1737 1954 2730 2645 2148 2424 2560 2560 2435 2006 1837 1837 1837 2362 3247 2521 2498 2102 2004 1741 1645 1796 2177 1935 1844 1777 1699 1636 1732 1806 2212 1645 1611 1611 1685 1611 1611 1611 1611 1611 1746 1887 1777 1611 1611 1611 1611 1611 1611 1611 1611 1611 1611 1611 1853 2236 3054 2562 2202 2328 1820 1641 1641 1768 1826 1964 1875 1940 1997 2240 2240 2560 2105 1950 1893 1893 1828 2118 1828 1828 1779 1886 1990 2070 2011 2151 2068 2043 2036 1970 1890 1524 1524 1524 1524 1524 1524 1346 1524 1524 1524 1524 1524 1524 1524 1524 1524 1524 1524 1524 1524 1524 1524 1524 1524 1346 1524 1524 1759 2133 2377 2289 2611 2608 2438 2499 2570 2560 2377 2075 1784 1866 1645 1524 1606 1768 2245 2973 2872 1950 1646 1794 1958 1889 2138 2312 2345 2438 2011 1938 1975 2370 2536 2377 2494 2702 2864 2883 3291 3097 2742 2690 3069 3101 3615 3169 3426 3185 3169 2986 3047 3634 3243 3243 3759 3322 2840 2608 2681 2925 2830 2920 2803 2773 2782 2863 2804 2825 2802 2865 2671 2776 2704 2695 2649 2646 2865 2865 3043 3671
2008 1947 1919 1922 2010 1823 1709 1584 1541 1586 1859 2238 2685 1969 1999 2011 1979 1870 1680 1669 1819 2124 2437 2198 2371 2273 2384 2438 2057 1874 1837 1837 1837 1837 2680 2727 2435 2083 1830 1700 1646 1741 1880 2166 2240 1966 1804 1667 1648 1834 1804 1611 1611 1674 1748 1611 1611 1611 1611 1683 1896 1831 1611 1621 1611 1611 1611 1611 1611 1611 1611 1611 1611 1751 2506 2874 2568 2317 2101 2287 1641 1695 1847 1850 2132 2072 2236 2693 2554 2248 2255 2560 2499 2224 1893 1910 1767 1889 1801 1762 1852 2072 2194 2181 2134 2136 2072 2036 1973 1978 1829 1524 1524 1524 1524 1524 1524 1346 1346 1524 1524 1524 1524 1524 1524 1524 1584 1536 1524 1524 1524 1524 1564 1346 1346 1346 1524 1546 1787 2006 2181 2587 2726 2742 2788 2801 2803 2708 2228 2185 2071 1959 1621 1582 1645 1824 1889 1762 1697 1706 1645 1703 1782 1932 1958 2083 1712 1706 1767 1916 2317 2079 2631 2500 2682 3330 3291 3413 3428 3230 3258 3169 2681 2992 3131 3230 3107 3281 2902 2902 3047 3243 3615 3613 3718 3779 2887 2506 2698 2804 2819 2864 2926 2834 2834 2892 2891 2878 2913 3094 3054 2814 2800 2682 2578 2508 2803 2866 3361 3771
2047 1889 1887 1969 2097 2190 1989 1685 1524 1547 1696 1703 1828 2332 2299 2010 1830 1754 1649 1652 1670 2300 2493 2278 2420 2316 2298 2133 1953 1837 1837 1837 1837 1891 2921 2499 2445 2788 1824 1676 1653 1720 1936 1973 1974 2309 1883 1830 2081 1884 1761 1699 1611 1611 1611 1611 1611 1611 1611 1622 1611 1611 1611 1611 1611 1611 1611 1611 1611 1611 1611 1611 1663 1945 2743 2562 2436 2325 1814 1641 1641 1645 1903 1847 2211 2269 2743 2703 2647 2482 2370 2438 2411 2173 1999 1914 1802 1762 1762 1813 1950 2059 2133 2133 2128 2073 2039 1989 1969 1906 1524 1524 1524 1524 1524 1524 1524 1524 1346 1524 1524 1524 1524 1524 1524 1524 1555 1524 1524 1524 1524 1583 1607 1346 1524 1524 1524 1524 1889 1950 1767 2488 2486 2438 2302 2316 2228 2228 2437 2396 2232 1816 1645 1902 1582 1645 1617 1617 1617 1617 1617 1643 1645 1617 1648 1648 1684 1706 1846 2224 3196 2508 2679 2804 2730 2857 3487 2987 2839 3512 2896 3114 2901 2596 3242 3140 3291 2897 3413 3078 2989 3228 3459 3459 3459 3535 3167 2585 2459 2696 2905 2862 2925 2864 2925 2931 2986 3047 2986 2703 2830 2719 2620 2559 2508 2621 2739 2955 3150 3413
1889 1858 1914 2236 2131 1914 1944 1615 1523 1518 1518 1565 1813 2189 2078 1756 1674 1643 1637 1677 1799 2164 2439 2194 2129 2517 2389 2072 1869 1947 1837 1837 1837 1890 2153 2148 2189 2543 1716 1676 1828 1745 1744 1847 1973 2330 1830 1830 2001 1798 1691 1636 1611 1611 1611 1611 1611 1611 1611 1611 1611 1611 1611 1707 1636 1644 1746 1611 1611 1644 1791 2047 2057 1855 2178 2438 2281 1817 1641 1641 1675 1739 2206 2316 2192 2534 2972 2987 3291 2910 2568 2355 2247 2163 1989 1816 1767 1762 1762 1903 2064 1828 1950 2072 2049 2072 1978 1950 1767 1694 1524 1524 1524 1524 1524 1524 1524 1524 1346 1524 1524 1524 1524 1531 1586 1524 1524 1524 1524 1524 1524 1346 1346 1346 1524 2011 1820 1659 1524 1524 1759 1584 1619 2302 2499 2682 2681 2540 2491 2377 2497 2227 2073 1946 1838 1617 1617 1617 1617 1617 1617 1617 1617 1834 1739 1770 1828 1767 1888 2095 2312 2355 3077 3291 2812 2931 3118 3025 2961 2653 2596 2926 2725 2596 2659 2621 2825 2925 3474 3009 3352 3697 3687 3535 3739 3581 3642 2560 2419 2381 2521 2930 2864 2804 2926 3048 3093 2987 2804 2703 2708 2828 2766 2515 2508 2559 2865 2964 3051 2974
1851 1868 2122 2257 2072 1789 1727 1518 1518 1518 1518 1581 2073 1813 1933 1859 1645 1625 1631 1740 2349 2494 2186 2049 2069 2395 2673 2044 1828 1828 2060 1838 1837 1858 1993 2011 1955 1940 1707 1734 1910 1977 1841 1780 1854 1830 1830 1830 2346 1973 1935 1611 1611 1611 1611 1611 1611 1611 1611 1611 1611 1611 1611 1611 1627 1820 1755 1839 1863 1772 2071 2291 2155 2425 2624 2316 1891 1806 1641 1949 2729 2562 2504 2255 2231 2499 2967 2926 2960 3325 2654 2707 2316 2328 1919 1810 1774 1762 1762 1796 1950 1828 2029 2017 2023 1948 1889 1736 1609 1524 1524 1524 1524 1524 1524 1524 1524 1524 1346 1346 1524 1524 1584 1617 1524 1696 1524 1524 1524 1524 1346 1346 1598 1524 2052 1615 1724 1752 2320 1614 1524 1584 2026 2316 2336 2745 2742 2621 2627 2446 2317 2316 2254 2011 1675 1828 1645 1617 1617 1617 1617 1617 1630 1836 1767 2101 2073 2041 2008 2250 2499 2550 2739 3380 3318 2981 3257 3657 3303 2777 2596 2671 3158 2596 2596 2631 2958 3341 3718 3532 3608 3749 3621 3535 3615 3474 3007 2643 2534 2377 2474 3040 2818 2803 2798 2873 3048 2903 2830 2741 2703 2692 2629 2655 2375 2194 2633 2974 2972 2813
1830 1885 1950 2120 1828 1551 1518 1518 1518 1518 1518 1711 2157 2011 2008 1829 1812 1641 1616 1888 2060 2497 2133 2010 2009 2268 2249 1902 1828 1828 1913 2369 1920 1837 1888 1957 1786 1751 1707 1802 1995 2286 1993 1870 1901 1830 1830 1830 1830 1957 1736 1620 1611 1611 1611 1711 1710 1697 1669 1611 1611 1611 1611 1611 1648 1702 1770 1804 1864 1899 2166 2255 2251 2469 2440 2358 1848 1645 1859 2848 3107 2857 2588 2229 2194 2665 3474 2926 3133 2836 2871 2435 2455 1893 1784 1828 1805 1762 1853 1844 1889 1584 1828 1889 1717 1744 1579 1593 1568 1524 1524 1524 1524 1524 1524 1524 1524 1524 1524 1346 1346 1533 1572 1536 1594 1524 1584 1524 1524 1346 1346 1744 1524 1524 2133 2353 2133 2385 2072 2313 2104 1859 2122 2001 2073 2447 2621 2681 2746 2580 2647 2517 2072 2268 2093 1776 1617 1636 1617 1617 1617 1642 1708 1903 1990 2386 2318 2194 2011 2150 2621 2808 3275 2908 2865 3443 3535 3291 3074 2842 2732 2596 2596 2596 2742 3216 3128 3474 3514 3183 3231 3535 3599 3822 3592 3953 3535 2759 2440 2373 2499 2791 2978 2788 2788 2861 3154 2964 2747 2499 2536 2329 2499 2444 2487 2194 2364 2741 2827 2589
1828 2222 2131 2081 1766 1540 1518 1518 1518 1518 1679 2318 2079 2078 2072 1905 1767 1631 1615 1615 1686 1951 2315 2010 1915 2194 2126 1835 1828 1828 1900 2083 1936 1837 1862 1986 1762 1737 1737 1853 2207 2208 1998 1904 1830 1830 1830 1830 1830 2227 2096 1742 1611 1611 1625 2035 1852 1717 1626 1611 1611 1611 1611 1635 1964 1726 1800 1857 1829 2199 2249 2124 2115 2115 2115 1875 1765 1742 1702 2804 3102 3048 2328 2184 2590 3155 3380 2926 2927 2653 2804 2735 2296 1888 1800 1771 1759 1692 1762 1892 1595 1524 1874 1605 1559 1523 1526 1564 1572 1574 1587 1548 1524 1524 1584 1524 1524 1524 1524 1346 1346 1524 1696 1702 1786 1645 1527 1346 1346 1346 1524 1621 2003 2009 2079 2309 2570 2316 2438 2502 2446 2127 1859 1859 2011 2407 2743 2763 2727 2546 2563 2455 2318 2376 2032 2035 1854 1864 1767 1672 1709 1673 1695 1824 2072 2209 2536 2500 2335 2386 2632 2865 3119 2777 2875 2815 3213 3157 2921 2804 2596 2596 2596 2596 2803 3025 3047 3030 3092 2868 3187 3355 3486 3581 3779 3295 3016 2715 2377 2285 2560 2514 2682 3048 2906 3363 3050 3206 2810 2605 2439 2383 2329 2569 2570 2013 2302 2665 2379 2378
1804 1882 1916 1820 1567 1518 1518 1518 1518 1518 1518 2312 2325 2130 2092 1809 1704 1613 1613 1616 1680 1864 2308 2258 1887 1890 2003 1828 1828 1828 1889 2476 1925 1889 1899 2046 1761 1737 1763 1829 1950 2304 2023 2027 1830 1830 1830 1830 1830 1939 2127 1739 1611 1611 1627 2025 1870 1785 1724 1611 1611 1611 1611 1708 1947 1952 1882 1859 1868 2558 2440 2115 2141 2232 2440 1864 2084 1874 2160 3086 3066 2773 2310 2133 2720 2743 2990 2838 2743 2638 2529 2613 2379 2072 1970 1882 1834 1668 1771 1820 1915 1714 1523 1523 1523 1584 1523 1523 1586 1590 1645 1593 1536 1699 1592 1542 1524 1524 1593 1346 1346 1524 1645 1767 1855 1854 1780 1346 1346 1524 1554 1524 1667 2389 2508 3035 3434 2692 2581 2459 1859 1859 1859 1859 1859 1897 2620 2682 2734 2677 2455 2461 2222 2222 2360 2137 1981 2046 1829 1722 1734 1706 1706 1803 1858 2133 2377 2494 2513 2559 2569 3054 3022 2936 2596 2596 2803 2640 2621 2596 2596 2596 2596 2596 2596 2596 2620 2596 2775 3108 2925 2974 3051 3562 2993 2877 2837 2519 2356 2285 2285 2285 2743 2685 2548 2925 2742 2918 2866 2583 2438 2375 1933 1950 2290 1900 1890 2377 2182 1869
1837 1821 2069 1708 1518 1518 1518 1518 1518 1518 1690 2121 2499 2439 1993 1687 1620 1613 1613 1613 1629 2291 2246 1857 1849 1958 2135 1889 1828 1828 1842 1976 1974 2011 1959 2194 1884 1787 1768 1858 2019 2370 2311 2073 1830 1830 1830 1830 1830 2386 1761 1611 1611 1611 1683 2315 1971 1845 1648 1611 1611 1611 1646 1806 2278 2247 2191 2025 1972 2211 2626 2325 2722 2779 2255 1907 1907 2284 2940 2942 2834 2581 2327 2133 2615 2732 2661 2602 2538 2438 2820 2981 2449 2020 1959 1798 1976 1638 1614 1614 1680 1523 1523 1523 1523 1523 1523 1523 1524 1563 1586 1646 1676 1698 1650 1635 1571 1596 1640 1346 1346 1524 1524 1681 1798 1524 1346 1346 1524 1524 1645 1524 1674 1880 2243 3244 3073 2711 2411 2316 1859 1896 1859 1859 1859 1859 1865 2485 2743 2775 2746 2683 2588 2595 2489 2307 2051 2196 2072 1840 1850 1785 1767 1777 1883 1970 2250 2514 2429 2572 2696 2865 2803 2864 2596 2632 2674 2596 2596 2596 2596 2596 2596 2596 2596 2638 2596 2596 2663 2682 2841 3145 2743 3048 3525 3108 3055 2844 2835 2475 2377 2285 2285 2267 2471 2529 2568 2468 2588 2264 2438 2194 1933 1933 1933 1880 1767 1847 1706 1688
1798 1787 1797 1558 1518 1518 1518 1518 1518 1565 1893 1900 2098 2135 1805 1689 1645 1613 1613 1613 1743 2128 1852 1828 1858 2190 1950 2569 1828 1828 1828 1837 1900 2089 2090 2046 1890 1814 1768 1882 1986 2132 2234 2081 1882 1830 1830 1830 1926 2515 1677 1611 1611 1611 1695 1905 1824 1741 1696 1628 1611 1611 1707 2074 2450 2115 2338 2292 2017 2268 2391 2620 2840 3274 2081 1907 1907 2239 2724 2868 2805 2278 2133 2189 2576 2476 2504 2178 2255 2421 3089 3127 2663 2133 1986 1792 1829 1785 1614 1635 1647 1523 1523 1523 1523 1523 1523 1523 1523 1523 1523 1588 1658 1724 1707 1634 1655 1767 1567 1528 1346 1524 1709 1524 1834 1346 1346 1524 1669 1645 1645 1638 1645 1982 2024 2844 3657 2711 2471 2252 2316 2221 1859 1859 1859 1859 1859 1859 2010 2456 2860 2693 2742 2743 2686 2503 2438 2389 2298 2043 2074 1870 1812 1825 1873 2072 2310 2429 2429 2429 2431 2493 2596 2596 2596 2596 2682 2652 2596 2596 2620 2596 2636 2681 2597 2596 2596 2596 2596 2596 2620 2810 2743 2745 3470 3501 3337 2796 2717 2797 3298 2926 2535 2345 2248 2248 2682 2251 2255 2064 2040 2040 2133 1941 2026 1706 1645 1615 1651 1633
1787 2010 1581 1518 1518 1518 1518 1518 1518 1809 2194 2194 2006 1828 1706 1646 1613 1613 1613 1613 1639 2258 1828 1828 2013 1852 2183 1935 1828 1828 1828 1855 2009 2089 2375 2381 1950 1869 1835 1884 1973 2085 2116 2038 1904 1830 1830 1830 2035 2666 1787 1644 1611 1618 1824 1861 1816 1899 1890 1611 1611 1611 1645 2134 2582 1952 1952 1952 1954 2198 2403 2817 3344 3395 3377 2520 1907 2029 2256 2882 2776 2173 2133 2614 2558 2530 2391 2298 2170 2636 3243 2562 2357 2205 2072 1859 1706 1685 1640 1555 1523 1802 1523 1523 1523 1523 1523 1523 1523 1523 1523 1523 1523 1617 1701 1672 1634 1784 1661 1524 1346 1524 1524 1832 1524 1346 1767 1767 1767 1645 1645 1638 1832 2133 2355 2812 2621 2400 2312 2400 1859 1859 2123 1889 1859 1859 1859 1859 1859 2011 2356 2403 2335 2374 2825 2837 2402 2562 2493 2238 2255 2072 1990 1899 1927 2192 2487 2793 2639 2574 2429 2429 2726 2795 2620 2596 2596 2596 2626 2596 2596 2797 2797 2918 2838 2621 2606 2792 2678 2596 2597 2597 2621 2847 2926 3139 3413 3050 2944 2621 2798 3446 3020 2544 2309 2248 2522 2072 2072 2281 2376 2254 2362 2241 2255 1974 1726 1706 1584 1576
1767 1911 1579 1518 1518 1518 1518 1518 1519 1940 2639 2173 1968 1771 1669 1613 1613 1613 1613 1639 1757 2011 1901 1828 2074 1790 2040 1999 1828 1828 1828 1942 1954 2123 2377 2194 2108 2010 1934 1845 1973 2120 2205 2058 1951 1830 1830 2026 2393 2443 1992 1940 1814 1759 1843 1927 1850 1779 1611 1611 1611 1611 1708 2619 2296 1952 1952 1952 1952 2133 2736 3017 2890 3448 2907 2414 1924 1907 1945 2800 2294 2133 2814 2753 2610 2544 2490 2319 2280 2170 2175 2250 2187 2217 2044 1828 1793 1644 1563 1523 1523 1523 1523 1523 1523 1523 1523 1523 1523 1523 1523 1523 1523 1706 1775 1767 1705 1797 1524 1524 1346 1346 1524 1889 1346 1346 1524 1524 1841 1706 1662 1706 1828 1952 2027 2255 2325 2253 2255 2194 1862 1859 1859 1859 1859 1859 1859 1859 1859 1859 1889 2074 2438 2581 2621 2803 2844 2712 2682 2695 2487 2339 2211 2072 1947 2072 2413 2672 2914 2429 2966 2513 2865 2803 2804 2596 2671 2623 2720 2987 2913 2877 2989 3013 2988 2710 2707 2865 3009 2682 3421 3181 2987 3330 3093 3209 3572 3230 3063 2674 2559 2865 2938 3341 2407 2316 2248 2127 2143 2297 2357 2255 2243 2241 2682 2133 1976 1828 1708 1645
1695 1645 1521 1518 1518 1518 1518 1670 1767 1989 3111 2309 1792 1686 1615 1613 1613 1613 1767 1799 1767 1912 1888 2051 1793 1709 1791 1904 1872 1828 1873 1989 2159 2433 2133 2159 2256 2255 2296 2107 1928 1956 2374 2332 2011 1882 1830 2064 2589 2222 2077 2095 1887 1714 1771 1773 1650 1611 1611 1611 1611 1619 1910 2164 1952 1952 1952 1952 1952 2036 2620 2719 2732 3043 2522 2182 1907 2248 2132 2850 2413 2133 2865 2788 2682 2531 2553 2433 2331 2165 2165 2165 2138 2033 2012 1706 1645 1585 1523 1523 1523 1523 1523 1523 1523 1523 1523 1523 1524 1523 1523 1523 1623 1747 1871 1889 1829 1829 1524 1836 1524 1346 1346 1346 1346 1524 1524 1614 1524 1923 1767 1758 1882 1933 2011 2063 2138 2011 2041 2186 2111 2024 1859 1859 1859 1970 1987 1859 1859 1859 1878 1950 1948 2323 2497 2377 2560 2719 2966 2864 2633 2509 2379 2219 2255 2182 2566 3055 2987 2543 3230 2646 3048 2926 3048 2922 2681 2623 2623 3039 3108 3108 3230 3422 2993 2803 2737 2987 3169 3332 2987 3238 3168 3413 2827 3176 3681 3094 3030 2947 2553 2420 2539 3251 2975 2546 2605 2377 2254 2253 2320 2285 2330 2241 2438 2751 2293 1962 1791 1712
2090 1536 1518 1518 1518 1518 1816 2498 2068 2342 2134 1823 1667 1615 1682 1704 1613 1613 1732 1723 1753 1894 1942 1791 1696 1714 1872 2103 1992 1870 1828 2066 2467 2567 2194 2072 2011 2072 2254 2388 1979 1943 2099 2454 2222 1949 1853 1943 2154 2141 2077 2053 1817 1654 1628 1639 1687 1611 1611 1611 1611 1611 1729 1970 1952 1952 1952 1952 1952 1957 2262 2813 3042 3046 2338 2072 1907 2012 2350 2682 2244 2133 2205 2798 2610 2560 2604 2472 2387 2456 3076 2734 2290 2178 2252 2255 1967 1646 1584 1523 1575 1523 1523 1523 1584 1584 1524 1523 1523 1523 1523 1523 1524 1645 1852 1918 1977 1918 1889 1578 1524 1524 1346 1346 1524 1524 1524 1524 1890 1889 1882 1767 1767 1889 1959 2011 2032 1915 1950 1967 1859 1929 1859 1989 2072 1911 1859 1950 1859 1859 1859 1859 1957 2072 2133 2255 2201 2522 2671 2929 2851 2814 2621 2508 2393 2206 2474 2782 3336 2775 3413 3169 3114 3310 3392 2658 2658 2743 2669 2681 2987 3048 3169 2997 2810 2737 3140 2817 3016 3001 2926 3047 2838 2743 2742 2867 2864 3202 3049 2898 2499 2428 2420 2669 3348 3819 3657 2974 2476 2374 2474 2425 2497 2476 2527 2671 2582 2176 1888 1900
1513 1518 1531 1534 1624 1790 2082 2553 2239 2153 1919 1707 1616 1706 1584 1615 1613 1613 1613 1621 1645 2131 2152 1769 1696 1765 1950 2011 1947 1798 1801 1875 2009 2214 2131 1951 1950 2011 2182 2278 1992 1967 2100 2436 2338 2099 2000 1932 1995 2037 1923 1800 1937 1653 1611 1611 1611 1611 1611 1611 1611 1618 1936 1952 2075 1952 1952 1952 2011 2081 2255 2543 3074 2444 1941 1907 1945 1986 2012 2133 2133 2133 2494 2830 2686 2681 2612 2752 2665 3048 3359 3311 2847 2393 2377 2127 2184 1856 1638 1585 1724 1775 1659 1865 1767 1743 1646 1557 1523 1523 1634 1523 1645 1752 1719 1614 1614 1912 1740 1606 1524 1346 1346 1524 1524 1524 1524 1524 1635 1888 1767 1869 1865 1814 1889 2011 2072 1950 1889 1859 2090 1859 1859 1859 1859 2124 1950 1859 1889 1859 1859 1860 1950 2050 2130 2138 2354 2499 2560 2667 2667 2986 2841 2626 2499 2368 2206 2307 2904 3135 2926 3291 3424 3108 2838 2658 2750 3325 3263 2794 3039 3010 3048 2843 2779 2874 3048 2854 2987 3085 2780 2780 2804 2601 2533 2766 2900 2867 2783 2620 2622 2370 2353 2449 2706 3280 3850 3352 2733 2428 2400 2400 2434 2621 2742 2761 2861 2542 2125 2107
1515 1521 1706 1730 2006 2553 2191 2316 2414 1970 1724 1634 1594 1763 1584 1613 1887 1954 1667 1613 1613 1695 1725 1705 1637 1721 1855 1818 1808 1767 1771 1855 1878 1995 2227 2187 1997 1939 2192 2311 2010 1967 2071 2232 2263 2052 2017 1925 1949 1979 1810 1724 1856 1611 1611 1611 1611 1611 1663 1647 1877 1862 2177 2256 2316 2124 2008 2012 1967 2060 2254 2765 2513 2314 1989 1907 2151 2649 2629 2287 2133 2169 2520 2804 2683 2783 2846 2925 2741 3336 3410 3371 3291 3101 2407 2133 1999 1999 1828 1643 1679 1767 1927 2204 2347 2397 1958 1639 1524 1523 1568 1523 1534 1778 1877 1614 1658 1719 1828 1828 1346 1346 1524 1584 1581 1524 1645 1524 1577 1950 1828 1889 1870 1848 1814 1889 1950 2133 1950 2009 2045 2011 1859 1868 2012 2044 1968 1889 2102 2073 1910 1948 1967 2154 2150 2162 2149 2319 2588 2743 2742 2747 2683 2444 2368 2483 2446 2499 2522 3419 3312 3407 3550 3534 3014 2860 3525 3548 3372 3048 2931 3176 2962 3260 3062 2970 2912 3047 3112 2994 2780 2780 2780 2533 2552 2432 2415 2471 2653 2492 2438 2368 2353 2405 2611 2987 3363 3768 3057 2581 2408 2400 2469 2730 2798 2865 2740 3020 2682 2255
1513 1639 1836 1947 2098 2803 2661 2202 2047 1944 1646 1638 1584 1702 1584 1584 1693 1812 1819 1666 1645 1613 1705 1641 1571 1542 1583 1925 1953 1737 1737 1767 1828 1933 2177 2148 1968 1840 1946 2133 2034 1967 1994 2099 2409 2266 1982 1858 2001 1883 1910 1893 1611 1611 1611 1611 1711 1928 1798 1964 2000 1963 2068 2115 2212 2202 1897 1950 2063 2073 2391 2314 2308 2377 2196 2130 2381 2903 2498 2134 2133 2133 2496 2648 2888 2940 3018 3023 2865 3160 3321 3352 3181 2770 2377 2255 2053 2072 1828 1651 1645 1716 1950 2590 3380 2621 1947 1767 1577 1523 1597 1729 1637 1612 1517 1584 1815 1757 1706 1346 1346 1629 1654 1701 1776 1786 1706 1952 1718 1716 1941 1829 1924 1889 1837 1828 1844 2194 1950 1950 2084 2056 1859 1889 1859 1927 2042 1922 2000 2043 2072 2132 2239 2344 2363 2320 2275 2204 2427 2621 2685 2731 2840 2499 2527 2620 2446 2716 2789 3308 3571 3717 3759 3475 2934 3051 3661 3685 3312 2931 2988 3283 3291 3232 3115 3290 3219 3300 3098 2934 2780 2804 3012 2745 2916 2631 2423 2377 2360 2358 2353 2353 2353 2353 2390 2820 3731 3639 3352 2740 2526 2409 2480 2620 2989 2971 3106 2987 2742 2597
1481 1509 1621 2099 2418 2420 2173 1923 1769 1706 1645 1598 1584 1661 1584 1584 1584 1830 2262 2135 1686 1613 1701 1643 1527 1521 1523 1759 2103 2173 1727 1727 1798 1868 1889 2014 2011 1840 2002 2214 2321 2061 1980 2039 1927 2066 1864 1822 1823 1756 1691 1720 1611 1611 1611 1611 1641 1686 1826 2069 1978 2010 1945 2094 2005 1956 1808 1829 2193 2494 2291 2379 2196 2196 2316 2695 2829 2999 2701 2499 2181 2234 2772 2869 2933 2993 2986 2851 3016 3180 3291 2931 3301 2733 2573 2270 2105 2166 1715 1645 1743 1950 1825 2075 2858 2386 1897 1655 1477 1439 1524 1542 1397 1389 1489 1747 1677 1645 1346 1346 1689 1767 1968 1894 2016 1794 1898 1706 1712 1712 2031 1950 1946 1916 2019 2149 1828 2111 2143 2194 2151 2011 1859 1859 1859 1879 1859 1948 2011 2021 2119 2383 2391 2437 2438 2545 2376 2593 2379 2379 2682 2910 3108 2787 2874 3525 3213 2923 3706 3901 3861 3712 3541 3424 2934 3413 3352 3050 3048 3094 3481 3243 3474 3291 3169 3108 3098 3098 3201 2926 3055 2980 3178 2981 2998 2620 2579 2437 2353 2353 2353 2353 2353 2353 2353 2489 2956 3235 3770 3169 2621 2564 2492 2506 2658 3047 3413 3048 3138 2564
1483 1589 1785 2133 2024 2133 1799 1801 1752 1684 1641 1680 1645 1584 1584 1584 1592 1817 1994 2249 1626 1631 1894 1593 1521 1521 1521 1672 1945 2216 1830 1737 1706 1806 1864 1887 1767 1950 2133 2463 2194 2046 2036 2299 2300 1834 1895 1784 1641 1644 1626 1611 1611 1611 1611 1611 1611 1629 1849 1787 1832 1820 1914 2185 1823 1808 1808 2008 2237 2403 2318 2196 2196 2196 2376 2994 2977 2805 2743 2560 2382 2195 2902 2995 3120 2925 3062 2497 2804 2866 2929 2424 2321 2377 2265 2206 2010 1950 2103 1744 1828 1950 1958 2138 2361 2910 1761 1645 1523 1526 1402 1462 1524 1389 1584 2010 1346 1346 1346 1852 1938 1869 1960 2007 1948 1830 2072 1816 2132 1950 1950 1994 2227 2043 2157 2103 2064 2064 2081 2159 2139 2178 1884 2016 1871 1859 1859 1903 2103 2230 2154 2485 2499 2391 2463 2542 2669 2666 2721 2886 2488 2488 3048 3484 3657 3689 2923 2923 3405 3671 3702 3611 3779 3666 2934 3148 3563 3261 3584 3593 3472 3350 3641 3596 3451 3098 3185 3098 3318 3042 3207 3356 3169 2926 2639 2560 2387 2353 2353 2353 2353 2353 2353 2353 2353 2353 2403 3072 4112 4002 3221 2604 2542 2532 2598 2965 3024 3495 3306 2742
1525 1633 1912 2114 1695 1695 1695 1695 1893 1883 1726 1820 1872 1584 1584 1584 1624 1950 1849 1767 1769 1522 1706 1584 1521 1521 1571 1847 2045 2088 1887 1993 1746 1706 1765 1725 1860 1983 2194 2285 2417 1992 2069 1889 1858 1698 1628 1616 1611 1611 1611 1611 1611 1611 1611 1611 1611 1645 1668 1706 1725 1808 2001 1808 1808 1808 1999 2438 2499 2528 2379 2196 2196 2196 2398 2586 2975 2804 2560 2348 2255 2255 2852 3230 2953 3116 2697 2440 2422 2316 2194 2235 2255 2096 2133 1889 1889 1950 2041 1706 1891 1950 1713 1767 2149 2886 2245 1944 1532 1401 1508 1346 1532 1389 1530 1696 1346 1705 1881 1982 1996 1954 1932 2009 2304 2072 2040 1890 1911 2499 2072 2351 2251 2159 2133 2103 2072 2064 2100 2160 2148 2255 2341 1950 2205 1890 1859 1859 1991 2011 2377 2646 2689 2405 2480 2698 2591 2737 3079 2987 2743 2742 2780 2780 3149 3962 3886 3351 3920 3498 3718 3413 3795 3610 3147 3535 3346 3291 3701 3653 3629 3596 3535 3596 3500 3574 3169 3291 3586 3474 3414 2880 2806 2908 2749 2437 2365 2353 2353 2353 2353 2353 2353 2353 2353 2353 2359 2637 3781 3962 3300 2739 2628 2590 2607 2819 2723 3104 3288 3413
1587 1767 2007 1695 1695 1695 1695 1695 2136 1808 1726 1795 2140 1584 1584 1584 1671 1839 1650 1622 1499 1640 1793 1533 1521 1521 1521 1790 2132 2090 1766 1764 1823 1763 1621 1706 1721 1844 2072 2068 2072 1929 1847 1764 1611 1611 1611 1611 1611 1611 1611 1611 1611 1611 1611 1611 1705 1677 1645 1668 1672 1867 1808 1808 1808 2057 2099 2363 2870 2454 2196 2196 2196 2196 2196 2866 2623 2722 2577 2304 2255 2344 2657 3172 2987 2401 2257 2255 2072 2147 2011 2133 1890 1890 1828 1839 1764 1889 2072 1828 1644 1718 1677 1645 1976 2133 2316 2485 1827 1484 1389 1346 1346 1346 1346 1346 1346 1683 1894 2011 2108 2316 2133 2270 2599 2364 2170 2316 2273 2462 2761 2830 2314 2194 2104 2102 2102 2100 2099 2086 2080 2124 2194 2440 2290 2444 2327 2126 2011 2095 2194 2256 2621 2703 3097 3398 3101 2926 3336 2926 3116 3038 2804 2950 3657 3627 3783 3317 3675 3498 3911 3525 3147 3147 3911 3413 3295 3169 3412 3840 3246 3532 3213 3594 3413 3442 3535 3718 3427 3175 3230 2958 3022 2741 2937 2560 2357 2353 2353 2353 2353 2353 2353 2353 2353 2353 2353 2526 3026 2961 3229 3309 2726 2537 2499 2682 2508 2624 3031 3397
1585 1657 1767 1695 1695 1695 1695 1695 2305 1778 1785 2002 1775 1584 1584 1584 1613 1834 1523 1499 1499 1766 1643 1521 1521 1521 1521 1521 1767 1872 1672 1552 1552 1584 1645 1706 1948 2072 2143 1950 1950 1796 1641 1615 1611 1611 1611 1611 1611 1611 1611 1611 1611 1611 1611 1632 1748 1706 1654 1654 1694 1893 1808 1808 1808 2460 2682 2803 2743 2516 2196 2196 2196 2196 2291 2441 2848 2388 2316 2255 2292 2438 2621 2499 2316 2162 2133 2045 2134 1893 1981 1789 1828 1766 1729 1904 1752 1873 1924 2189 1583 1671 1523 1463 1566 1634 1738 1835 1654 1457 1346 1346 1346 1401 1419 1573 1689 1676 1950 1894 1894 2031 2103 2620 2521 2390 2278 2316 2438 3054 2787 3112 2638 2273 2054 2054 2073 2072 2072 2056 2042 2072 2133 2242 2438 2503 2500 2354 2171 2076 2079 2682 2438 2438 2455 3291 3306 3108 3825 3262 3611 3475 3498 3171 3220 3677 3313 3962 3791 3931 3754 3691 3779 3619 3630 3393 3251 3048 3481 3596 3057 3048 3048 3048 3048 3413 3225 3345 3363 3254 3003 2866 3044 2572 2532 2392 2377 2353 2353 2353 2353 2353 2353 2353 2353 2353 2353 2353 2446 3096 3516 2975 2711 2461 2376 2591 2395 2319 2248 2438
1646 1745 1889 1741 1695 1695 1695 1695 1955 1944 2008 1824 1706 1595 1584 1767 1584 1461 1645 1499 1645 1862 1709 1521 1521 1521 1521 1580 1706 1821 1644 1552 1552 1584 1705 1828 2051 2133 2093 1893 1773 1706 1706 1626 1611 1611 1611 1611 1611 1611 1611 1679 1694 1708 1643 1622 1813 1712 1667 1665 1767 1810 2252 2555 2330 2256 2674 2911 2486 2354 2352 2234 2196 2196 2314 2488 2497 2433 2377 2291 2377 2584 3160 2554 2236 2086 2011 1874 1869 1767 1931 1828 1781 1743 1632 1753 1763 1752 1887 1998 1781 1583 1471 1402 1461 1524 1584 1584 1710 1681 1346 1346 1346 1463 1401 1644 1689 1915 1939 2133 2255 2438 2572 2265 2458 2423 2145 2143 2133 2669 2295 2322 2347 2194 2069 2065 2054 2072 2101 2058 2041 2041 2072 2188 2090 2090 2560 2560 2743 2366 2255 2621 2783 2621 2864 2695 2926 2976 2832 3132 3117 3103 3169 3487 4023 3220 3535 3648 3670 3800 3901 3446 3901 3503 3687 3291 3134 3048 3048 3474 3048 3048 3048 3048 3048 3169 3443 3203 2774 2681 2784 2877 2667 2560 2454 2406 2377 2361 2353 2353 2353 2353 2353 2353 2353 2353 2353 2353 2362 2618 2681 3274 2809 2515 2425 2341 2213 2133 2187 2255
1852 1822 1695 1707 1695 1695 1695 1695 1695 1994 1978 1878 1840 1781 1644 1648 1645 1357 1357 1435 1552 1645 1581 1521 1521 1521 1698 1707 1767 2105 1674 1552 1552 1552 1767 1889 2060 2010 1828 1766 1751 1756 1767 1612 1611 1633 1611 1611 1611 1611 1611 1828 1892 1769 1701 1706 1759 1683 1682 1683 2437 2502 2531 2727 2743 2688 2894 2560 2511 2530 2417 2277 2196 2196 2439 2377 2395 2363 2314 2439 2386 2488 2797 2621 2316 2114 2075 2011 1834 1749 1828 1798 1828 1752 1598 1642 1773 1949 1705 1811 1886 1485 1584 1523 1402 1457 1461 1581 1836 1389 1346 1346 1389 1628 1676 1524 1742 1731 2028 2133 2144 2425 2280 2482 2468 2316 1933 1832 2011 2194 2183 2187 2150 2133 2072 1859 2002 2011 1945 2052 2023 2038 2051 2132 2133 2193 2090 2560 2643 2487 2501 2503 2725 2609 2803 2949 2695 2703 3085 3397 2835 3568 3472 3474 3474 3565 3265 3265 3743 3810 3526 3413 3413 3339 3071 3071 3048 3048 3318 3048 3048 3237 3473 3048 3048 3114 2882 2926 2977 2574 2686 2560 2577 2540 2424 2377 2377 2353 2353 2353 2353 2353 2353 2353 2353 2353 2353 2353 2353 2415 2766 2892 2729 2651 2499 2308 2278 2177 2133 2057
1821 1752 1695 1695 1695 1695 1695 1695 1695 1770 1950 2011 2060 1889 1706 1412 1271 1580 1477 1549 1645 1841 1793 1548 1521 1523 1659 1766 1732 1929 1552 1552 1552 1589 1656 1825 1886 1841 1857 1772 1824 1940 1889 1767 1661 1706 1689 1611 1611 1613 1767 2218 2005 1819 1751 1781 1934 1680 1704 1787 2021 2917 2798 3000 3273 3043 2819 2613 2560 2495 2448 2377 2196 2227 2627 2432 2377 2334 2163 2272 2100 2195 2424 2526 2186 2262 2045 1984 2009 1718 1658 1645 1766 1748 1770 1584 1584 1645 1651 1622 1822 1940 1462 1462 1389 1402 1389 1415 1556 1346 1346 1346 1389 1389 1431 1524 1523 1706 1927 1986 2258 2515 2547 2549 2560 2280 2262 1777 2011 1951 2072 1936 1950 1945 1838 1939 1831 1889 2072 2042 2021 1991 1990 1993 2063 2097 2090 2377 2466 2438 2438 2378 2499 2499 2724 2746 2804 3176 3283 2763 3538 3027 3139 3198 3596 3067 3516 3564 3451 3779 3657 3570 3838 3669 3187 3436 3108 3605 3720 3048 3048 3498 3212 3048 3052 3048 2882 2882 2882 2626 2489 2438 2438 2438 2408 2377 2375 2353 2353 2353 2353 2353 2353 2353 2353 2353 2353 2353 2353 2377 3446 2967 2797 2670 2499 2764 2620 2564 2254 2177
1718 1753 1695 1695 1695 1695 1695 1772 1976 2210 2024 1891 2005 1830 1709 1268 1238 1496 1413 1450 1518 1560 1613 1521 1521 1521 1599 1910 1584 1552 1552 1552 1552 1675 1826 2001 1890 1879 1869 1887 1829 1819 1814 1973 1889 1774 1638 1611 1611 1618 1783 1789 1988 1944 1975 1737 1680 1680 1770 2028 2474 2085 2316 2941 3112 2982 2741 2438 2437 2437 2439 2196 2196 2196 2500 2400 2438 2317 2217 2066 2014 1987 2092 2072 2334 2433 2011 1984 2075 1828 1755 1645 1599 1592 1584 1615 1584 1584 1706 1586 1765 1956 1571 1526 1463 1389 1389 1389 1346 1346 1346 1491 1584 1389 1389 1523 1857 1982 1797 1968 1983 2013 2316 2621 2384 2197 2209 1768 1724 1829 1887 1828 1864 1885 1735 1786 1889 1800 1834 1951 1965 2041 1913 2011 2011 2090 2169 2090 2398 2499 2378 2428 2483 2634 2505 2728 3003 3185 2934 2763 2940 3027 3027 3299 2732 3042 3098 3098 3901 3626 3139 3564 3687 3555 3659 3707 3616 3596 3108 3393 3413 3640 3048 3270 3492 3012 2882 2882 3018 3169 2821 2509 2501 2478 2435 2377 2375 2353 2353 2353 2353 2353 2353 2353 2353 2353 2353 2353 2353 2393 3393 3587 3461 3238 2856 3486 2686 2620 2460 2331
1721 1695 1695 1695 1695 1695 1701 1709 1747 1808 1804 1744 2282 1887 1472 1338 1218 1413 1427 1485 1524 1523 1523 1521 1587 1823 2054 1837 1767 1552 1552 1552 1552 1592 1828 1828 1828 1767 1857 1828 1876 1828 1866 1706 1706 1686 1628 1619 1720 2011 1804 2004 1887 1992 2255 1881 1680 1740 1860 2591 2803 2654 2619 2861 3118 2877 2743 2614 2438 2455 2293 2196 2304 2625 2666 2622 2565 2073 1974 1951 1987 2011 2052 2133 2264 2250 2194 2122 2072 2081 2072 1706 1612 1584 1584 1724 1727 1520 1520 1700 1805 1829 1512 1389 1346 1346 1389 1346 1346 1389 1389 1520 1706 1801 1671 1828 1803 2072 1692 1954 1950 2042 2084 2255 2258 1778 1767 1584 1714 1674 1767 1767 1798 1815 1770 1628 1705 1645 1917 1829 1849 1889 2048 2075 2098 2102 2133 2252 2240 2378 2196 2376 2545 2620 2505 2790 2728 2728 2728 2895 3048 3047 3161 3169 2560 3047 3552 3368 3646 3535 2954 3835 3527 3311 3102 3639 3463 2976 3352 3370 3279 3840 3349 3687 2986 2911 2962 2882 3367 3402 3407 2743 2832 2716 2538 2436 2362 2353 2353 2353 2353 2353 2353 2353 2353 2353 2353 2353 2353 2682 3644 3444 3013 2900 2693 2823 2803 3270 2804 2316
1818 1695 1991 1695 1816 2235 1833 1645 1541 1459 1513 1769 1945 1686 1372 1271 1212 1344 1399 1857 2128 1523 1503 1549 1677 1935 2128 1767 1552 1552 1828 1820 1767 1706 1759 1724 1724 1724 1724 1767 1710 2000 1903 1843 1767 1846 1813 1889 1771 1950 1890 2068 2376 2072 1923 2067 1680 2345 2549 2831 2734 2499 2621 2446 2778 2866 2806 2560 2471 2280 2316 2295 2376 2783 2617 2623 2221 2177 1997 1826 1826 1826 1950 2072 2194 1950 2194 2015 1990 1857 2058 1710 1644 1587 1605 1622 1675 1595 1544 1520 1646 1523 1775 1389 1346 1346 1346 1346 1389 1389 1389 1593 1643 1737 1645 1645 1693 1628 1767 2016 1837 1950 2032 1950 1950 1884 1769 1557 1688 1621 1685 1645 1701 1645 1707 1628 1645 1706 1826 1726 1861 1932 1950 2063 2011 2103 2103 2169 2140 2133 2133 2316 2377 2557 2675 2803 2945 3102 2743 3365 3535 3019 2753 3098 2560 3083 3490 3169 3316 3550 2954 3596 3718 3547 3102 3121 3080 2831 3342 3226 3701 3470 3462 3489 2911 3291 2882 2882 3265 3291 2865 3019 3273 2682 2560 2452 2380 2353 2353 2353 2353 2353 2353 2353 2353 2353 2353 2353 2353 2558 3219 3841 3108 2742 2590 2643 2839 2506 2329 2272
1824 1645 1680 1680 1889 2163 1844 1624 1490 1425 1400 1435 1708 1481 1343 1242 1212 1412 1619 2133 1926 1586 1535 1401 1679 1920 2119 1910 1771 1552 1932 1890 1836 1771 1767 1830 1724 1786 1954 1484 1902 2001 2011 1828 1791 1879 2019 1787 1953 2099 2133 2255 2440 2046 1694 1583 1572 2002 2500 2835 2508 2480 2135 2516 2598 2530 2765 2540 2438 2401 2255 2491 2672 2802 2501 2591 2363 2167 1950 1890 1826 1826 1950 1950 1943 1855 2011 2033 1857 2133 1857 1889 2011 2133 1565 1508 1516 1519 1584 1563 1520 1389 1628 1542 1346 1346 1346 1346 1389 1389 1431 1526 1526 1824 1869 1933 1645 1628 1699 1722 1770 1900 1969 1926 1854 1790 1598 1557 1557 1585 1645 1597 1584 1645 1645 1557 1581 1557 1581 1700 1695 1892 1889 1950 2072 2011 2023 2011 2124 2149 2207 2286 2345 2360 2519 2657 2858 3231 3358 3149 3327 2671 2377 2377 2333 2986 3323 3162 3650 2954 3034 3535 2809 3126 2865 2505 2560 2604 2858 3378 3563 3169 2865 3011 3190 3047 3147 3474 3344 3352 3239 3352 3707 3367 2632 2725 2417 2353 2353 2353 2353 2353 2353 2353 2353 2353 2353 2353 2353 2353 2401 2620 2558 2579 2766 2986 2812 2603 2514 2255
1829 1621 1506 1654 1886 2132 1988 1884 1486 1401 1375 1339 1521 1707 1645 1214 1212 1228 1679 1582 1889 1430 1393 1393 1509 1706 1941 1760 1708 1552 2008 2011 1669 1801 1779 1767 1830 1819 1731 1484 1614 1908 1785 1649 1835 1659 1831 1546 1609 2053 2204 2133 2619 2630 1903 1527 1733 1921 2273 2370 2383 2032 2202 2377 2005 2197 2589 2470 2443 2241 2255 2072 2732 2682 2744 2501 2348 2071 2040 1826 1829 1888 1889 1981 1765 1767 1797 1889 1889 1889 1739 1889 1889 2005 2054 1523 1459 1401 1389 1389 1401 1389 1462 1462 1389 1346 1346 1389 1389 1389 1462 1572 1645 1667 1890 1706 1538 1601 1645 1718 1833 1922 2001 1926 1814 1557 1557 1558 1583 1583 1557 1584 1591 1605 1582 1557 1557 1557 1557 1695 1788 1765 1872 1804 1909 2025 2011 1969 2008 2072 2017 2078 2194 2282 2376 2585 2743 2991 3304 3257 3667 3108 2888 2333 2467 2905 2854 3292 3338 2438 2438 2809 3282 3009 3019 2498 2498 2498 2766 2925 3115 3048 2727 2705 2998 2956 3474 3302 3703 3573 3572 3026 3593 3120 2864 2888 2435 2364 2353 2353 2353 2353 2353 2353 2353 2353 2353 2353 2353 2353 2373 2421 2499 2484 2559 2896 2981 3023 3064 2486
1645 1497 1457 1492 1543 2072 2008 1796 1523 1401 1341 1333 1454 1680 2107 1610 1212 1279 1527 1301 1400 1402 1393 1393 1536 1706 2133 1790 1706 1282 1473 1668 1607 1728 1931 2053 2069 1502 1569 1463 1475 1461 1401 1800 1935 1414 1384 1602 1563 1899 2001 2146 2661 1904 1672 1527 1672 1684 2010 2491 2243 2064 1900 1900 2246 2315 2409 2256 2095 2131 2234 2072 2166 2437 2190 2074 2013 2008 2094 1853 1715 1859 1714 1819 1748 1746 1767 1836 1747 1632 1645 1889 1890 1767 1707 2183 1645 1453 1389 1402 1402 1389 1346 1346 1346 1346 1346 1389 1389 1462 1510 1638 1688 1757 1841 1389 1452 1586 1691 1775 1858 1949 1964 1844 1768 1576 1557 1557 1557 1557 1557 1557 1557 1557 1557 1557 1557 1557 1615 1629 1658 1645 1794 1922 2004 2076 2046 1904 1869 1878 1889 2015 2160 2197 2223 2384 2315 2911 3149 3352 2808 2828 2855 2343 2265 2784 2808 2883 2438 2438 2717 3047 2682 2565 2679 2498 2498 2527 2579 2706 2658 2518 2412 2743 2705 2786 3902 3539 3256 3291 3497 3376 3026 3032 2925 2621 2456 2377 2365 2353 2353 2353 2353 2353 2353 2353 2353 2353 2353 2353 2373 2390 2419 2522 2573 3053 3123 3047 2671 2797
1480 1448 1422 1422 1449 1611 1882 1546 1462 1399 1328 1301 1448 1969 2078 1769 1252 1158 1106 1212 1462 1399 1393 1456 1767 1888 1992 1889 1461 1343 1208 1459 1340 1582 1761 1770 1765 1534 1412 1444 1275 1271 1411 1402 1425 1341 1361 1454 1687 1974 2503 2987 2550 1993 1258 1349 1707 1695 2121 2198 1910 1804 1951 1900 1910 2197 1832 2074 1836 1992 2072 2013 2011 1950 1945 2041 1971 2057 1825 1811 1642 1767 1683 1688 1836 1645 1882 1784 1828 1828 1595 1651 1764 1771 1645 1766 2133 1602 1434 1389 1389 1389 1346 1346 1346 1346 1389 1538 1554 1499 1579 1590 1400 1389 1389 1389 1389 1462 1634 1766 1889 1767 1906 1676 1645 1557 1557 1557 1557 1557 1557 1557 1557 1575 1557 1557 1557 1584 1584 1557 1557 1679 1706 1744 1795 1767 1767 1889 1835 1841 1879 1950 2134 2071 2074 2252 2631 2355 2743 2926 2648 2310 2235 2265 2577 2497 2329 2438 2620 2566 2739 2640 2896 2620 2565 2786 2852 2450 2437 2374 2363 2499 2412 2926 3187 3596 3543 3576 3311 3108 3108 3237 3145 3026 2974 2674 2560 2422 2377 2353 2353 2353 2353 2353 2353 2353 2353 2353 2353 2367 2411 2412 2448 2531 2680 2891 3431 3230 2708 3230
1529 1422 1422 1422 1422 1422 1422 1523 1584 1502 1466 1277 1329 1886 1917 1499 1341 1166 1042 1150 1350 1525 1391 1526 1693 1746 1600 1331 1298 1343 1281 1017 1219 1410 1584 1516 1323 1323 1276 1243 1157 1178 1258 1235 1253 1260 1392 1459 1548 1890 1915 1925 1443 1263 1217 1331 1710 1392 1363 1578 1916 1804 2011 1961 2109 2012 1873 1832 1914 2011 1911 2004 1901 1889 1889 1950 2101 1828 1772 1772 1584 1767 1584 1648 1743 1552 1594 1729 1793 1632 1627 1511 1631 1584 1402 1618 1389 1706 2255 1389 1389 1389 1346 1346 1346 1389 1401 1389 1390 1389 1389 1389 1389 1389 1389 1389 1457 1523 1462 1709 1776 1923 1584 1557 1557 1557 1557 1557 1557 1557 1557 1557 1557 1557 1557 1557 1557 1575 1576 1557 1584 1679 1824 1905 2420 2266 1889 1767 1792 2298 2156 2498 2438 2071 2159 2438 2466 2339 2377 2438 2349 2255 2157 2122 2253 2329 2376 2351 2194 2214 2255 2554 2607 2232 2438 2804 2629 2457 2355 2258 2254 2255 2499 2680 2946 3596 2812 3535 3217 3551 3108 3381 3107 2986 2932 2605 2499 2445 2376 2353 2353 2353 2353 2353 2353 2353 2353 2353 2353 2363 2396 2447 2475 2617 3107 3230 3436 3382 3402 2782
1585 1461 1422 1422 1422 1422 1450 1500 1645 1843 1395 1277 1277 1278 1476 1523 1341 1273 1103 1042 1218 1230 1705 1501 1607 1360 1219 1155 1343 1260 1098 1017 1213 1400 1391 1325 1265 1333 1203 1157 974 1037 1404 1239 1235 1096 1541 1523 1478 1641 1462 1351 1218 1090 1097 1282 1445 1149 1340 1824 2072 2014 1648 1889 1829 1772 1767 1739 1828 1771 1952 1948 1889 2015 1952 2081 1975 1831 1817 1850 1584 1584 1636 1584 1585 1510 1489 1686 1465 1518 1645 1545 1511 1686 1389 1389 1389 1389 2034 1848 2280 1346 1346 1346 1454 1462 1346 1346 1389 1416 1420 1389 1389 1389 1389 1401 1501 1557 1646 1462 1462 1557 1557 1557 1557 1557 1557 1557 1557 1557 1557 1557 1557 1557 1557 1557 1557 1557 1557 1557 1557 1703 1888 2213 2588 1949 1789 1741 2239 2197 2287 2377 2363 2071 2296 2300 2174 2215 2255 2316 2254 2193 2153 2133 2110 2080 2133 2145 2155 2132 2499 2337 2468 2359 2145 2145 2145 2159 2194 2316 2194 2401 2437 2608 2651 2618 2899 3413 3596 3388 3065 3230 3101 2986 2951 2656 2612 2499 2464 2365 2353 2353 2353 2353 2353 2353 2353 2384 2387 2361 2390 2447 2492 2644 2987 3058 3342 3421 3017 2621
1353 1522 1584 1422 1551 1422 1446 1557 1569 1950 1341 1277 1277 1308 1459 1371 1338 1217 1036 1000 1064 1334 1645 1462 1716 1391 1029 1071 1172 1111 1036 1017 1093 1208 1215 1164 1184 1248 1133 1040 936 1123 1752 1904 1259 1036 1017 1345 1096 1096 1157 1107 975 970 1015 1149 1149 1149 1208 1208 1230 1843 1650 1589 1768 1714 1739 1761 1933 1802 1707 1743 1732 1955 1889 2070 1925 1888 1706 1698 1651 1584 1688 1454 1389 1449 1389 1462 1462 1523 1524 1389 1389 1328 1328 1328 1328 1328 1706 1767 2194 1346 1346 1346 1346 1346 1346 1346 1409 1389 1389 1389 1389 1392 1389 1463 1523 1584 1670 1768 1609 1580 1557 1557 1557 1557 1557 1557 1557 1557 1557 1557 1557 1557 1557 1557 1557 1557 1557 1557 1557 1575 1669 1816 1890 1802 1680 2072 2056 2082 2194 2012 2071 2081 2183 2133 2103 2149 2193 2255 2238 2078 1963 2015 2065 2054 2072 2072 2072 2072 2165 2316 2194 2072 2147 2145 2258 2369 2572 2255 2133 2212 2407 2386 2618 2804 3234 2926 3460 3487 3464 2900 3171 3014 2983 2845 2640 2630 2516 2371 2353 2353 2353 2376 2438 2353 2353 2353 2353 2376 2405 2478 2447 2693 2694 2863 3235 3493 2931 2601
1408 1569 1645 1422 1546 1462 1461 1488 1577 1950 1445 1277 1277 1461 1277 1410 1331 1332 1270 1222 893 1290 1481 1383 1318 973 1102 1309 1138 1071 870 945 1096 1054 1049 1032 1198 1157 1217 1000 853 1305 1816 1688 1258 1097 1064 941 941 987 941 941 941 1000 1109 1217 1413 1462 1461 1377 1432 1230 1529 1717 1709 1845 1824 1757 1842 1670 1710 1766 1732 1809 1769 1860 1783 1707 1644 1644 1704 1462 1402 1460 1389 1389 1389 1523 1584 1584 1328 1389 1519 1328 1328 1328 1328 1328 1328 1328 1346 1346 1389 1389 1414 1402 1389 1584 1770 1389 1737 1389 1389 1407 1401 1505 1542 1623 1683 1699 1640 1586 1557 1557 1557 1557 1557 1557 1557 1557 1557 1557 1573 1557 1655 1557 1557 1557 1557 1557 1557 1557 1585 1686 1706 1649 1654 1889 2011 2011 1889 2004 1828 2041 2084 2072 2011 2042 2102 2133 2238 2306 1963 2013 2011 2011 2054 2011 2011 2011 2140 2499 2072 2072 2194 2238 2316 2106 2291 2370 2133 2286 2301 2536 2954 3391 2836 2994 3657 3612 3535 2987 2900 2900 2919 2761 2743 2663 2515 2442 2376 2370 2361 2494 2796 2353 2353 2353 2353 2353 2465 2573 2513 2578 2713 3035 3454 3840 3169 2458
1311 1584 1524 1422 1424 1460 1584 1589 1751 2059 1558 1277 1277 1277 1277 1277 1277 1563 1485 1096 1097 820 1160 1033 917 1051 1406 1193 1014 887 870 908 1005 973 968 1067 1094 1094 933 847 792 993 1214 1587 1515 1162 1036 941 941 941 941 1003 1118 1035 1363 1767 1526 1631 1497 1706 1862 1939 1821 1862 1828 1980 1898 1890 1883 1709 1670 1709 1768 1648 1707 1709 1722 1695 1671 1777 1569 1527 1434 1402 1429 1524 1389 1389 1424 1402 1328 1328 1328 1328 1389 1328 1328 1328 1328 1389 1389 1389 1524 1488 1524 1731 1389 1726 1828 1389 1899 1389 1477 1534 1497 1462 1552 1615 1648 1600 1557 1557 1557 1557 1557 1557 1557 1557 1557 1557 1557 1557 1557 1557 1760 1709 1645 1584 1557 1557 1557 1557 1557 1584 1557 1583 1828 1889 1833 1787 1828 1828 1828 1950 2068 2011 1950 1986 2011 2072 2076 2258 2011 1889 2119 2255 2058 2011 1950 1959 2133 2308 2072 2497 2163 2137 2074 2133 2261 2133 2133 2227 2377 2438 2495 2801 2748 2804 3392 3190 3366 3535 3051 3169 2682 2622 2592 2853 2582 2438 2406 2368 2368 2391 2371 2353 2353 2353 2353 2353 2628 2682 2559 2643 2862 3291 3495 3421 2931 2743
1211 1262 1461 1422 1502 1542 1767 1676 1640 1763 1470 1204 1615 1277 1277 1277 1277 1435 1571 1061 910 812 914 914 1341 1401 912 856 853 853 1025 1578 1522 1341 966 946 1028 894 873 802 781 902 877 1093 1657 1313 980 941 941 941 941 952 1183 1035 1035 1421 1698 1558 1504 1497 1860 2084 1924 1892 1716 1768 1796 1912 1741 1663 1524 1541 1583 1554 1584 1633 1701 1828 1917 1890 1527 1611 1462 1423 1584 1625 1584 1389 1328 1328 1328 1328 1328 1328 1328 1328 1328 1328 1447 1389 1767 1389 1659 2743 2042 1783 1660 1818 1832 1423 1706 1479 1901 1541 1523 1584 1523 1628 1706 1584 1557 1557 1557 1557 1557 1621 1557 1557 1557 1557 1584 1557 1557 1587 1633 1584 1584 1584 1557 1557 1557 1557 1557 1557 1557 1557 1582 1810 1756 1756 1898 1919 1950 1963 2029 2072 1934 1982 1950 1889 1950 2011 1958 1871 2049 2133 2193 1993 1950 1980 1901 1902 1901 1950 2250 2074 2074 2142 2133 2435 2469 2712 2280 2435 2378 2499 2499 3066 3048 3084 3158 3009 3201 3072 3064 2874 2560 2526 2526 2487 2421 2378 2357 2367 2357 2353 2353 2353 2353 2353 2353 2619 2616 2924 3073 3699 3190 3126 3099 2985
1188 1322 1301 1459 1462 1574 1524 1385 1425 1615 1225 1123 1292 1320 1277 1277 1277 1418 1573 1035 820 791 798 906 1282 1175 902 796 853 1318 2017 1758 1345 1319 975 863 795 803 795 792 725 726 749 1033 1331 941 941 941 941 941 941 941 1157 1035 1050 1364 1364 1397 1639 1497 1538 1642 1634 1716 1948 1806 1700 2078 1536 1524 1524 1585 1594 1534 1576 1591 1660 1741 1907 1689 1684 1618 1602 1423 1423 1423 1651 1702 1389 1328 1328 1328 1328 1389 1389 1328 1389 1389 1389 1697 1404 1706 1767 1915 1857 1779 1804 1882 1950 1645 1708 1566 1872 1678 1559 1622 1598 1639 1664 1557 1557 1557 1557 1557 1645 1596 1557 1557 1557 1574 1636 1645 1658 1675 1645 1612 1584 1632 1557 1557 1557 1557 1557 1557 1557 1557 1644 1828 1767 2011 1756 1915 1975 2070 2054 2072 1889 1816 1849 1950 2065 2008 1894 1826 1985 2075 2057 2142 1950 2033 1958 1901 1901 2089 2134 2074 2116 2252 2133 2372 2220 2743 2160 2378 2379 2694 2585 2560 2594 2874 2743 3031 3108 3105 2874 2930 2686 2605 2620 2509 2478 2446 2401 2353 2463 2357 2353 2353 2353 2353 2420 2579 2953 3576 3489 3192 3352 2788 2621 2818
1195 1279 1161 1247 1428 1584 1462 1078 1279 1619 1221 1111 1148 1669 1277 1277 1277 1277 1426 1037 828 757 779 1011 1157 1059 861 660 754 1259 1762 1946 1449 1166 1390 838 750 749 731 733 691 670 660 660 941 1014 1335 1019 941 1020 1144 1183 1094 1041 1402 1414 1367 1446 1556 1570 1523 1585 1585 1646 1952 1824 1568 1524 1524 1524 1524 1524 1524 1569 1585 1641 1761 1889 1973 1871 1704 1767 1759 1767 1750 1767 1542 1389 1478 1328 1328 1328 1389 1389 1389 1389 1389 1389 1389 1389 1529 1584 1813 1878 1926 1936 1950 1804 1989 1710 1767 2033 1882 1584 1560 1593 1641 1620 1747 1645 1557 1557 1584 1557 1706 1584 1557 1557 1557 1557 1700 1676 1677 1676 1645 1645 1645 1649 1557 1563 1557 1557 1557 1557 1557 1584 1588 1651 1641 1706 1875 1955 1758 1889 1891 1888 1831 1782 1889 1966 1950 1819 1798 1828 2011 2014 2011 2026 1950 2011 1951 1901 1941 1931 2025 2183 2172 2194 2137 2133 2133 2133 2201 2206 2560 2438 2651 2562 2524 2567 2657 2999 3201 3112 3048 2953 2743 2864 2630 2561 2520 2458 2438 2377 2353 2353 2478 2377 2353 2353 2693 2710 2756 3653 3325 3048 3035 2683 2609 2389
1188 1023 1044 1185 1584 1462 1523 1219 1017 1157 1171 1111 1246 1458 1345 1640 1277 1277 1718 1515 1096 737 731 1214 1096 976 820 660 778 910 995 1248 1090 1096 1018 791 676 660 690 660 670 660 690 1182 1243 1708 1343 1157 1491 1096 1401 1271 1254 1597 1469 1433 1403 1423 1462 1485 1508 1524 1585 1706 1560 1622 1524 1524 1524 1524 1524 1524 1549 1646 1700 1709 2024 2012 2068 1965 1821 1828 1949 1897 1828 1889 1889 1745 1328 1328 1389 1389 1389 1401 1389 1389 1389 1389 1463 1645 1524 1552 1584 1767 1995 1992 1962 1926 2037 2194 1767 2328 1645 1627 1620 1593 1767 1767 1950 1828 1830 1645 1584 1662 1557 1557 1557 1581 1606 1557 1573 1645 1691 1764 1828 1768 1767 1767 1694 1668 1584 1557 1557 1557 1557 1557 1557 1601 1584 1755 1710 1711 1715 1733 1767 1761 1767 1802 1828 1828 1812 1767 1831 1889 1950 1950 1889 1933 1951 1901 1901 1901 1911 1950 2011 2133 2133 2252 2314 2316 2193 2229 2458 2377 2316 2316 2433 2438 2360 2448 2849 3130 3108 3106 3223 3021 3037 2916 2736 2639 3188 2520 2468 2406 2353 2353 2353 2353 2353 2353 2788 2750 2710 3300 2945 3093 3074 2804 2501 2566
1106 1010 1010 1146 1246 1471 1798 1350 975 1376 1330 1132 1111 1534 1500 1756 1291 1407 2147 1456 1101 854 731 829 914 889 792 660 715 785 878 1159 1012 926 779 680 660 670 660 660 660 660 683 964 1625 1963 1584 1325 1706 1523 1767 1497 1401 1286 1524 1462 1472 1462 1492 1523 1526 1589 1595 1542 1524 1524 1524 1524 1524 1524 1524 1585 1588 1745 1799 2011 2138 2068 2114 1865 1975 1929 2003 1964 1945 2007 1820 1328 1328 1389 1389 1412 1477 1480 1588 1463 1389 1389 1389 1441 1552 1524 1639 1645 1707 1888 2062 2216 2207 2293 1828 2316 1828 1889 2011 1706 1776 1828 1760 1706 1645 1589 1571 1557 1557 1557 1557 1583 1619 1672 1608 1584 1707 1746 1799 2255 2494 2577 2345 1986 1712 1589 1557 1569 1557 1557 1557 1557 1584 1629 1645 1674 1675 1666 1794 1798 1706 1768 1816 1767 1767 1798 1889 2009 1944 1831 1831 1877 1901 1950 1925 1980 1980 1950 2132 2255 2133 2194 2359 2286 2194 2398 2304 2316 2377 2560 2351 2317 2377 2378 2865 2965 3295 3048 3108 3108 2814 2814 2742 2707 2895 2539 2479 2377 2355 2353 2353 2353 2353 2509 3098 3474 2966 2886 3230 3239 3343 2829 2608 2606
1010 1010 1010 1134 1233 1414 1448 975 975 1213 1275 1111 1128 1207 1360 1923 1753 1808 2045 1344 1041 863 731 670 698 792 712 660 660 720 792 783 662 686 720 663 660 660 660 660 660 663 1154 2029 2080 1847 1462 1707 1694 1634 1501 1401 1387 1307 1286 1584 1547 1462 1493 1518 1580 1605 1616 1585 1524 1524 1524 1524 1524 1524 1564 1707 1740 1809 1896 2109 2239 2256 1981 1700 2039 2030 2063 2011 2072 2132 1328 1328 1389 1438 1652 1622 1646 1529 1568 1646 1403 1536 1706 1707 1655 1706 1645 1768 1645 2068 2143 2314 2202 2285 2134 2118 1950 1879 1889 1729 1706 1706 1645 1608 1608 1571 1586 1568 1584 1584 1632 1557 1592 1676 1747 1645 1629 1688 1885 2108 2743 2682 2255 2009 1747 1645 1581 1557 1586 1557 1557 1557 1584 1584 1581 1581 1615 1675 1706 1676 1663 1767 1769 1767 1770 1828 1889 1889 1828 1880 1831 1831 1831 1944 1950 2072 2015 1987 2126 2261 2249 2238 2194 2375 2362 2442 2356 2494 2377 2511 2420 2316 2315 2419 2772 2822 3108 3052 3048 3047 3016 2984 2804 2632 2577 2610 2477 2376 2487 2475 2353 2353 2353 2625 3468 3596 3332 3331 3066 3448 2804 2519 2479 2550
1067 1083 1131 1323 1377 1412 1219 975 975 1387 1105 1088 1151 1401 1366 1523 1812 2027 1786 1340 1161 825 731 726 670 670 660 660 660 670 670 660 660 660 660 660 660 660 660 672 792 986 1550 1739 1710 1492 1463 1584 1530 1523 1530 1538 1370 1320 1295 1518 1584 1556 1486 1499 1557 1646 1646 1524 1524 1524 1524 1524 1585 1646 1628 1739 1811 1851 1988 2373 2356 2327 1988 1646 1685 1587 1738 2083 2194 1328 1328 1389 1767 1767 1706 1767 1676 1651 1667 1695 1645 1605 1681 1737 1728 1773 1798 1706 1826 1798 1826 2143 2161 2130 2102 2090 2072 1850 1821 1762 1706 1667 1678 1662 1645 1676 1638 1591 1570 1584 1620 1557 1584 1715 1767 1806 1894 1723 1767 2255 2372 2307 1898 1770 1889 1687 1586 1588 1621 1557 1557 1560 1557 1578 1584 1615 1581 1613 1656 1663 1663 1669 1735 1706 1730 1706 1767 1767 1767 1853 1950 1918 2011 1889 1950 2008 2011 1987 2226 2207 2194 2194 2194 2255 2254 2377 2269 2377 2499 2325 2255 2322 2255 2285 2349 2461 2804 3021 2986 3174 2970 2825 2864 2649 2519 2515 2621 2377 2416 2490 2410 2500 2353 2846 2962 3169 2986 3133 3151 3047 2752 2560 2499 2479
1340 1342 1339 1564 1305 1154 1030 975 975 1217 990 1109 1275 1378 1375 1706 2147 2892 2075 1759 1044 806 748 1019 896 859 671 660 660 660 660 660 660 660 660 660 728 786 1350 1310 1118 1384 1517 1775 1381 1301 1462 1584 1574 1575 1566 1570 1474 1374 1331 1390 1664 1613 1523 1520 1501 1532 1524 1524 1524 1524 1524 1554 1581 1445 1764 1819 1826 1950 2385 2377 2438 2454 2255 2012 1571 1524 1527 1753 1666 1328 1389 1412 1966 1829 1761 1797 1853 1796 1697 1734 1676 1613 1675 1676 1742 1798 1832 1706 1706 2088 2115 2045 2074 2046 2121 2284 1850 2128 1926 1828 1767 1708 1736 1706 1699 1682 1615 1582 1612 1621 1645 1557 1563 1645 1830 1878 1860 1767 1870 1950 1950 1935 1791 1720 1720 1706 1645 1607 1689 1635 1586 1557 1585 1557 1570 1620 1663 1691 1767 1798 1706 1663 1663 1663 1664 1664 1775 1767 1889 1767 1822 1950 1944 2071 2043 2072 2011 2037 2193 2197 2194 2194 2194 2194 2194 2370 2273 2269 2271 2255 2255 2255 2255 2265 2621 2875 3093 3105 3044 2864 2973 2904 2641 2682 2543 2469 2469 2403 2349 2324 2321 2286 2502 2743 2743 3148 3013 2986 3085 2813 2657 2651 2502 2377
1052 1337 1274 1299 1280 1126 975 975 975 1215 1021 972 1449 1370 1589 1972 2708 2337 2112 1776 1319 972 1314 910 782 667 660 660 660 660 660 660 660 660 660 660 896 1295 1700 1818 1426 1502 1142 1467 1271 1271 1320 1657 1598 1658 1588 1585 1528 1436 1432 1402 1670 1645 1653 1514 1545 1554 1534 1524 1585 1525 1524 1585 1445 1707 1796 1832 2064 2078 2438 2499 2560 2551 2195 2072 1948 1570 1484 1443 1328 1328 1469 1523 1889 1948 1874 1803 1839 1827 1750 1733 1732 1676 1696 1675 1778 1835 1773 2007 1951 2032 2026 2032 2059 2102 2046 2015 2320 2301 2377 2387 1798 1767 1777 1676 1658 1617 1641 1629 1639 1663 1662 1584 1557 1645 1631 1690 1727 1759 1826 2133 1962 1828 1794 1722 1784 1722 1706 1675 1676 1649 1601 1590 1645 1570 1602 1617 1706 1737 1732 1769 1829 1767 1767 1829 1783 1767 1837 1802 2089 1828 1767 1949 1920 1920 1950 1994 2032 2126 2172 2209 2218 2213 2194 2255 2255 2241 2241 2241 2269 2255 2255 2255 2255 2287 2283 2528 2804 3115 3061 2864 2926 2977 2868 2560 2558 2409 2377 2324 2348 2316 2261 2263 2741 3352 2900 3709 3283 3026 2710 2682 3299 2590 2560 2316
1172 1162 1135 1104 1036 1036 975 975 1036 975 972 972 1035 1210 2001 2865 2104 2069 1997 1766 1550 919 832 1054 750 660 660 660 660 660 660 660 660 284 660 708 849 1474 2063 1807 1176 1250 1113 1271 1328 1620 1553 1633 1683 1651 1656 1630 1548 1620 1438 1760 1738 1740 1722 1707 1576 1579 1646 1646 1534 1585 1524 1602 1445 1724 1768 1904 1997 2202 2438 2505 2621 2560 2385 2114 1768 1595 1517 1328 1328 1463 1529 1621 1902 1950 1943 1889 1859 1889 1845 1814 1717 1712 1765 1745 1902 1952 2014 2022 1964 1948 1950 1986 1984 1990 2031 2015 2159 2255 2218 2316 2343 1841 1853 1772 1676 1749 1717 1655 1690 1655 1645 1673 1645 1575 1690 1713 1767 1885 1916 2193 1950 1881 1909 1828 1920 1767 1726 1706 1676 1633 1656 1615 1584 1615 1675 1691 1725 1751 1815 1851 1826 1767 1792 1833 1900 1777 1828 1829 1961 1820 1950 1889 2072 2001 1936 1950 1976 2015 2069 2133 2142 2142 2142 2163 2194 2255 2377 2277 2438 2255 2255 2255 2255 2255 2255 2311 2766 3190 3113 2948 2741 2444 2742 2582 2499 2391 2346 2288 2259 2229 2194 2194 2360 2845 2712 3189 3484 3291 2682 2682 2913 3163 2665 2474
1392 1310 1210 1282 1197 1135 1209 1122 1073 975 972 972 997 1109 1389 2232 2496 1820 1861 1682 1331 841 877 754 684 660 660 683 782 660 662 284 284 284 660 660 720 1160 1131 1336 1174 1131 983 1007 1001 997 1195 1771 1728 1733 1710 1585 1552 1534 1639 1876 1809 1719 1696 1668 1743 1707 1659 1646 1575 1600 1671 1227 1456 1304 1462 1950 2072 2269 2316 2500 2621 2618 2501 2162 1958 1603 1564 1328 1389 1664 1723 1719 1950 2036 1972 1867 1797 1915 1932 1889 1802 1870 1894 1889 1975 2072 1984 1987 1890 1861 1905 1919 1950 1964 2032 2068 2011 2133 2134 2133 2316 1889 1786 1798 1765 1800 1703 1767 1708 1687 1706 1756 1645 1616 1647 1694 1694 1848 1926 2314 2164 2531 1997 1947 1865 1867 1828 1743 1710 1711 1647 1634 1615 1645 1648 1671 1774 1797 1859 1889 1865 1812 1794 1871 1913 1951 1944 2011 1954 2111 1847 1847 1944 2019 2011 2010 2071 1980 2011 2133 2194 2194 2194 2194 2235 2321 2489 2255 2255 2255 2255 2255 2255 2255 2270 2365 2560 2800 2884 2813 2744 2431 2401 2560 2347 2386 2339 2285 2377 2144 2133 2133 2239 2294 3315 3529 3820 3068 2682 2682 2877 2902 2621 2560
1712 1841 1867 1459 1364 1311 1512 1430 1340 1067 1102 951 918 1011 1388 1808 1457 1511 1827 1523 961 821 662 660 660 660 660 666 766 669 660 284 284 284 660 660 660 734 822 1206 1034 911 919 852 934 1349 1368 1839 1728 1763 1698 1616 1606 1557 1790 1891 1854 1866 1772 1746 1790 1756 1697 1646 1646 1703 1707 1707 1227 1448 1950 2071 2072 2255 2377 2560 2621 2622 2621 2141 1832 1628 1645 1328 1645 1645 1706 1828 1780 2053 1957 1877 1767 1919 1950 1785 1854 1868 1921 1973 2005 1932 1861 1823 1838 1841 1847 1884 1950 2194 2114 2011 1988 2042 2088 2142 2164 2238 2133 1889 1948 1858 1762 1794 1772 1736 1726 1706 1616 1647 1638 1640 1712 1765 1857 2072 2682 2346 2131 2458 2399 2133 1893 1775 1767 1751 1677 1706 1642 1615 1647 1676 1775 1828 1884 1946 1903 1862 1839 1859 1925 1947 2009 2011 1981 1922 1950 2059 2072 1955 2011 2011 2011 2094 2254 2106 2168 2194 2261 2254 2271 2377 2406 2255 2255 2255 2255 2255 2255 2255 2255 2387 2404 2796 2859 2926 2681 2560 2302 2560 2274 2403 2316 2255 2224 2149 2133 2166 2232 2282 3145 3230 2908 3048 2710 2682 3000 3447 3128 2251
1181 2140 2109 1706 2488 1780 1736 1632 1609 1645 1408 975 914 908 1044 1165 1341 1513 1476 1313 1158 849 660 660 706 688 691 699 802 848 682 660 284 284 660 660 660 698 796 755 810 820 819 836 1057 1501 1967 1848 1864 1800 1871 1657 1603 1576 1697 1883 1908 1958 1895 1723 1818 1773 1768 1740 1646 1658 1714 1716 1202 1827 1476 1818 2195 2316 2438 2556 2651 2743 2682 2045 1809 1706 1328 1328 1677 1697 1950 1828 1831 1780 1920 1794 1718 1762 1754 1774 1827 1835 1897 1901 1874 1812 1806 1802 1802 1817 1974 1950 2023 2013 2015 1988 1988 1988 2086 2133 2194 2224 2194 2255 2192 2377 1938 1889 1857 1807 1747 1655 1616 1616 1669 1706 1767 1804 1841 1949 2072 2676 2743 2560 2266 2061 1874 1832 1767 1719 1683 1686 1648 1615 1648 1706 1764 1846 1889 1960 1950 1900 1871 1915 1911 1970 2012 2102 2113 1980 1944 2040 1998 2072 1955 1996 2015 2059 2193 2194 2192 2252 2260 2316 2377 2377 2438 2438 2255 2578 2407 2316 2255 2268 2296 2255 2316 2447 2780 2503 2540 2516 2499 2132 2194 2133 2189 2209 2194 2142 2141 2116 2132 2132 2301 2596 2596 2814 2682 2682 2986 3108 3187 3179
1084 1317 1707 2084 2305 2175 1991 2282 2030 1755 1598 1235 1091 911 900 1165 1765 1204 1158 1297 1237 846 735 691 726 736 770 1124 1038 992 969 444 284 284 660 848 864 1102 851 735 681 817 660 868 1292 1450 2031 1970 1826 1727 1867 1911 1704 1648 1694 2002 2022 1969 2224 1605 1683 1827 1709 1768 1718 849 1492 1231 1202 1202 1202 1202 1531 2316 2438 2550 2618 2743 2694 2719 2163 1777 1328 1328 1767 1767 1821 1826 1866 1889 1807 1718 1718 1718 1740 1773 1979 1827 1827 1879 1774 1777 1825 1802 1998 1950 1950 2011 1950 1950 1888 2082 1988 1988 2095 2112 2193 2135 2122 2072 2128 2194 2179 1950 1888 1765 1679 1668 1616 1645 1703 1803 1821 1896 1956 2004 2129 2556 2615 2621 2211 2072 1995 1845 1767 1736 1704 1691 1646 1645 1676 1666 1764 1790 1856 1950 1919 1975 1889 1942 1953 2011 2011 2069 2033 2007 1973 2011 2076 2133 2001 2016 2011 2056 2102 2215 2181 2172 2216 2194 2255 2284 2255 2255 2255 2255 2415 2407 2351 2395 2070 2377 2380 2681 2621 2283 2261 2432 2194 2073 2074 2189 2184 2176 2116 2116 2116 2116 2116 2133 2540 2743 2742 2682 2682 3069 3296 2969 2828 2743
864 1089 1342 2366 1956 2229 2925 2501 2255 2182 1665 1401 1126 1001 884 780 729 804 849 950 754 824 733 973 854 883 1168 854 794 728 660 284 284 660 660 818 1310 976 939 789 660 660 663 704 1071 1471 1837 1863 1796 1745 1692 1651 1653 1687 1595 1949 2298 1931 1761 1456 1919 1829 1739 1083 1072 849 849 849 849 1889 1891 1202 1202 2271 2421 2377 2621 2682 2743 2804 2327 2250 1450 1328 1800 1777 1803 1825 1889 1827 1856 1808 1737 1738 1669 1779 1823 1792 1793 1822 1895 1734 1737 1888 1893 1979 1954 1870 1819 1840 2036 2127 2069 2035 2028 2103 2131 2194 2055 2067 2187 2125 2232 2306 1890 1773 1738 1644 1616 1644 1758 1828 1904 1950 2012 2026 2244 2783 2621 2803 2739 2438 2075 1889 1834 1733 1706 1675 1649 1645 1645 1704 1712 1819 1852 1852 1860 1867 1888 1919 1950 2008 2072 2072 2049 2011 2072 2164 2194 2150 2011 2001 2011 2060 2089 2055 2064 2122 2133 2194 2251 2316 2255 2255 2377 2412 2574 2042 2178 2109 1981 2042 2275 2282 2499 2508 2128 2060 2072 2011 1963 2028 2130 2194 2116 2116 2116 2133 2120 2290 2531 2794 2967 3104 2682 2884 3008 2987 2930 2814
829 968 1230 1491 1768 2170 2436 2942 2011 1883 1605 1376 1226 1043 847 754 717 687 609 616 642 667 748 782 791 905 1030 1148 660 660 660 284 284 660 660 877 1017 1172 1010 314 314 660 660 704 1174 1379 1429 1804 1780 1797 1676 1921 1651 1286 1559 1445 1204 1973 1348 1436 1855 1018 767 767 767 1214 1398 1742 1296 1077 1077 1077 1397 1202 1202 2039 2499 2560 2621 2569 2624 1940 1552 1328 1824 1806 1779 1767 1769 1735 1767 1704 1645 1665 1671 1828 1754 1762 1764 1747 1742 1734 1735 1831 1827 1843 1787 1819 1856 1934 2041 2103 1970 2012 2056 2084 2133 2013 2013 2194 2316 2210 2125 2194 2251 1787 1767 1707 1645 1707 1796 1889 1981 2017 2072 2186 2194 2255 2702 2681 2679 2621 2103 1944 1839 1768 1706 1706 1687 1645 1685 1671 1706 1737 1780 1770 1828 1828 1858 1889 1901 1951 1991 2072 2124 2072 2078 2101 2194 2108 2049 2023 2011 2011 2055 2106 2133 2131 2171 2171 2271 2255 2255 2255 2382 2554 2635 2134 2042 1960 1950 1950 2032 2007 2132 2030 2059 2072 1999 1914 1980 2011 2075 2168 2116 2377 2664 2645 2441 2386 2969 3169 3136 3264 2719 2682 2838 2841 2745 2438
778 962 1157 1591 1814 2125 2628 2565 2548 2205 1804 1950 1580 1097 791 731 683 657 583 573 584 698 586 628 782 912 822 665 760 660 660 284 284 660 693 894 1118 1403 599 314 314 660 660 898 1167 1341 1700 1833 1801 1788 1895 1560 1709 1621 1094 1483 1198 1896 783 753 767 767 1193 1203 1768 1445 1665 1296 1828 1486 1077 1077 1202 1202 1268 1463 2256 2221 2512 2506 2490 1591 1629 1328 1328 1858 1767 1709 1685 1643 1706 1657 1585 1647 1663 1642 1633 1661 1712 1676 1712 1615 1675 1706 1798 1770 1706 1859 1889 1941 2024 2041 1940 2010 1981 1999 2022 2013 2197 2194 2126 2194 2108 2092 1889 1767 1797 1775 1767 1646 1846 1905 2072 1971 2189 2235 2239 2262 2330 2316 2628 2773 2256 1951 1833 1773 1751 1706 1676 1676 1706 1735 1704 1744 1761 1768 1834 1828 1828 1828 1859 1918 1985 2011 2060 2082 2102 2130 2133 2245 2133 2072 2033 2042 2089 2198 2225 2252 2224 2203 2211 2255 2261 2255 2317 2755 2673 2615 2192 2031 1977 1950 1950 1964 1950 1950 2055 2010 1950 1914 1942 1942 1973 1942 2132 2438 2865 2926 2471 2560 2843 3050 3208 2931 2911 2561 2886 2918 2376 2342
791 824 888 1458 1620 1883 1837 2085 2310 1929 1834 1573 1498 1022 846 733 670 627 560 534 572 746 529 532 548 586 32 178 226 284 284 284 284 284 903 977 1122 553 284 342 314 314 703 1159 1470 1874 1850 1826 1796 1874 1874 1648 1048 1116 1056 1547 753 753 753 1067 1151 1524 1328 1798 1785 1654 1541 1296 1551 1828 1889 1291 1481 1202 1202 1344 1928 1629 2438 2042 2479 2529 1984 1355 1328 1433 1659 1549 1557 1634 1619 1613 1573 1608 1613 1622 1605 1634 1603 1646 1573 1564 1610 1610 1698 1698 1751 1798 1861 1918 2046 1980 1913 1970 1889 1977 2007 2055 2072 2010 2075 2005 2012 2116 1890 1807 1828 1732 1676 1676 1754 1950 1886 2133 2255 2189 2255 2220 2255 2294 2494 2772 2419 2084 1890 1847 1819 1737 1706 1676 1692 1708 1762 1767 1812 1765 1836 1851 1889 1866 1888 1924 1985 1949 1997 2027 2054 2102 2104 2254 2192 2194 2133 2057 2072 2133 2194 2225 2212 2224 2255 2263 2445 2550 2778 2410 2316 2133 2133 2045 2119 2011 2356 1950 1950 1951 1914 1914 1914 2094 2073 2065 1942 1942 2143 2302 2347 2447 2606 2799 3007 2991 3032 3108 2761 2499 2743 2659 2316 2229
776 804 845 912 1068 1392 1598 1975 1855 1981 2006 1273 1280 1029 886 705 661 617 570 518 578 609 21 21 21 21 21 21 21 467 284 660 284 284 840 1260 921 297 284 660 314 314 314 1368 1428 1734 1856 1852 1828 1829 1864 1876 1818 1048 992 753 753 1378 1400 1349 1885 1490 1828 1825 1768 1717 1707 1296 1296 1296 1727 1753 1917 1545 1202 1202 1202 1707 1524 1202 1524 2404 1749 1202 1207 1740 1549 1582 1549 1645 1584 1549 1549 1549 1560 1586 1556 1554 1549 1549 1549 1636 1622 1610 1721 1767 1794 1859 1919 1950 1944 1904 1884 1884 1889 1969 1989 1992 1919 2066 2011 2001 2036 1950 1950 1809 1766 1736 1694 1676 1744 1809 1923 2133 2072 2183 2220 2220 2220 2220 2308 2742 2798 2377 2174 2013 1887 1767 1741 1700 1709 1767 1774 1762 1822 1802 1828 1858 1861 1889 1923 1915 1919 1945 1974 2011 2040 2045 2072 2072 2103 2194 2206 2147 2075 2092 2107 2136 2180 2224 2208 2211 2784 3064 3095 2694 2378 2133 2136 2330 2375 2439 2645 2329 2478 2025 1950 1914 1914 1950 1914 2034 2169 2187 2195 2316 2371 2663 2735 2833 2930 2865 3028 2503 2702 2377 2572 2510 2270 2250
775 807 853 910 1003 1110 1152 1315 1548 1842 1858 1130 1219 1000 854 789 731 624 585 512 510 510 586 109 375 21 21 990 755 743 284 284 284 284 284 660 284 284 284 759 660 359 426 1011 980 1532 1563 1826 1828 1860 1926 1912 1947 863 753 753 1510 1574 1621 2038 1534 1889 1586 1875 1828 1768 1768 1708 1676 1653 1710 1798 1829 1946 1950 1951 1403 1202 1202 1202 1202 1202 1202 1202 2042 1767 1599 1554 1549 1549 1549 1549 1549 1549 1549 1549 1549 1549 1575 1610 1586 1675 1676 1766 1801 1834 1860 1916 1863 1862 1925 1858 1889 1889 1962 2000 1950 1919 1974 2075 1916 2022 1939 1863 1828 1768 1751 1734 1718 1692 1768 1929 1988 2072 2072 2214 2316 2220 2598 2222 2264 2317 2757 2632 2277 2042 1828 1768 1737 1706 1734 1767 1767 1762 1780 1865 1828 1828 1828 1859 1871 1920 1916 1928 1978 1980 2021 2019 2045 2072 2086 2112 2194 2188 2158 2155 2253 2223 2221 2228 2193 2163 2313 3128 3108 2807 2688 2631 2528 2940 2987 2621 2804 2378 2495 2148 1914 1914 1914 1914 1940 2072 2127 2319 2420 2436 2474 2742 2994 3048 2865 2859 2742 2499 2580 2448 2377 2385 2349 2545
771 801 853 890 911 953 1031 1178 1306 1549 1906 1167 1036 975 886 800 743 688 644 602 567 609 839 220 21 21 21 1062 1216 660 660 660 660 284 284 284 284 284 284 920 922 1650 1267 426 1023 673 1223 1521 1496 1805 1288 1884 1219 753 1094 1402 2081 1924 1812 2073 2045 1889 1857 1833 1826 1768 1768 1735 1653 1707 1653 1710 1791 1889 1904 1940 2011 2071 2133 2101 1219 1463 1202 1524 2011 1861 1676 1645 1566 1584 1570 1549 1549 1549 1549 1549 1584 1641 1737 1738 1740 1648 1767 1737 1798 1850 1828 1828 1798 1852 1816 1826 1912 1889 1981 1889 1946 1980 1918 1887 2112 2171 2209 1945 1889 1828 1773 1737 1767 1709 1828 1919 2011 2064 2116 2256 2316 2243 2255 2222 2222 2282 2557 2742 2433 2095 1892 1816 1758 1739 1712 1737 1771 1769 1798 1821 1858 1833 1828 1859 1999 1888 1919 1976 1958 2003 2001 2001 2056 2041 2071 2089 2110 2173 2164 2129 2186 2163 2228 2194 2255 2162 2185 2621 2743 2879 2682 2741 2760 2985 2865 2914 2902 2885 2377 2505 2192 1950 1914 1914 2011 2162 2255 2268 2393 2621 2717 3047 3383 3627 3236 2857 2587 2454 2795 2284 2223 2310 2316 2314
1095 771 792 845 882 904 989 1072 1174 1556 1887 1651 1108 976 889 787 736 732 730 800 1032 722 845 796 749 21 477 725 1017 995 660 660 688 660 660 660 660 734 893 1051 1071 1552 1506 1470 673 673 974 1283 1399 1288 1288 1873 1259 750 897 1504 1943 2012 2138 1993 1955 1889 1864 1838 1816 1794 1780 1768 1725 1725 1727 1737 1737 1828 1845 1872 1969 2011 2073 2134 2250 1735 2142 2071 2039 1951 1655 1653 1651 1583 1549 1549 1549 1549 1549 1549 1631 1706 1738 1772 1809 1767 1693 1828 1765 1755 1763 1797 1842 1859 1767 1889 1889 1888 1889 1940 1984 1886 1887 1950 2005 2193 2194 1953 1950 1848 1798 1767 1768 1759 1820 1942 2053 2186 2316 2302 2355 2359 2299 2222 2242 2375 2351 2531 2546 2239 1950 1823 1784 1759 1751 1767 1798 1797 1828 1844 1877 1859 1886 1927 1899 1928 1920 2038 1951 2011 2001 2001 2001 2016 2067 2103 2070 2072 2086 2132 2121 2127 2129 2095 2134 2133 2194 2473 2633 2682 2742 2744 2779 2725 2725 2734 3001 2765 2499 2133 2044 1950 1914 1914 1914 1952 2055 2383 2377 2838 3090 3299 3638 3713 3177 2621 2346 2286 2194 2256 2170 2153 2288 2147
820 900 891 821 836 905 929 1010 1155 1575 2003 1742 1411 1157 963 957 843 789 821 1037 857 763 701 701 701 96 21 618 1003 829 660 660 916 754 760 936 907 723 1215 1127 1283 1763 1601 1525 1095 673 673 1428 1288 1389 1828 1542 1921 750 998 1170 1643 2072 2073 2103 1950 1890 1872 1828 1818 1774 1775 1768 1745 1725 1725 1734 1736 1758 1828 1828 1951 2004 2071 2117 2210 2255 2260 2031 2011 1959 1691 2040 1549 1549 1549 1549 1549 1549 1549 1549 1642 1645 1723 1764 1800 1779 1813 1811 1722 1722 1758 1910 1829 1765 1828 1859 1889 1861 1897 1882 1882 1908 1908 1933 2003 2194 2212 2015 1918 1859 1828 1828 1783 1766 1862 1890 2169 2148 2316 2376 2356 2400 2438 2222 2222 2241 2377 2503 2694 2286 2072 1824 1768 1767 1768 1777 1798 1819 1828 1880 1889 1889 1919 1920 1951 1946 1944 1935 2002 2054 2129 2072 2034 2014 2030 2037 2094 2072 2023 2072 2096 2052 2133 2117 2095 2095 2150 2430 2681 2500 2591 2637 2725 2725 2725 2934 2804 2801 2322 2133 2007 1914 1914 1914 1914 1914 2194 2554 2710 3048 2838 3328 3381 2988 2950 2603 2407 2244 2316 2194 2163 2126 2165 2102
797 940 975 1031 957 904 943 1136 1340 1340 1638 1362 1400 1537 1166 1042 975 919 975 1278 727 701 701 701 717 725 21 498 752 703 660 678 919 990 1104 1063 885 914 1394 1384 1368 1381 1577 1646 1524 673 673 771 821 1405 1048 1392 1889 750 1041 1730 2133 2011 2121 2079 2012 1971 1889 1828 1802 1769 1737 1737 1737 1725 1725 1725 1725 1738 1765 1828 1887 1993 2034 2082 2165 2196 2218 2255 2092 2194 2133 2067 2077 1551 1549 1549 1549 1549 1549 1549 1649 1645 1698 1705 1722 1761 1767 1889 1722 1829 1826 1827 1732 1814 1828 1887 1819 1889 1771 1889 1889 1903 2072 2072 2116 2194 2224 2051 1923 1878 1832 1839 1861 1808 1884 1937 2077 2173 2298 2438 2444 2382 2222 2222 2568 2438 2384 2134 2194 2132 1904 1828 1795 1798 1798 1828 1846 1888 1901 1889 1919 1889 1905 1980 1979 2041 2042 1986 1997 2010 2079 2186 2135 2094 2117 2067 2026 2011 2012 2011 2011 2035 2069 2194 2095 2095 2194 2676 2682 2519 2458 2438 2910 2905 2815 2840 2804 2560 2248 2006 1914 1914 1914 1914 1914 1914 2255 2682 2795 3366 3021 3139 3027 2925 2743 2437 2716 2329 2214 2227 2118 2132 2060 2117
804 991 1271 1186 1334 916 904 904 904 1296 1519 1183 1130 1157 1040 938 934 956 1138 824 701 701 701 701 751 849 21 427 660 685 660 832 941 1108 1453 1246 1182 973 1114 1535 1866 1524 1646 1585 1585 1472 673 673 673 673 1529 1762 1788 750 750 1599 1923 2245 2012 1987 2014 1963 1868 1797 1737 1731 1732 1733 1725 1725 1725 1725 1725 1757 1768 1804 1859 1919 1950 1995 2010 2135 2065 2120 2131 2118 2072 2014 2004 1549 1549 1549 1549 1549 1549 1549 1549 1549 1674 1687 1697 1744 1648 1645 1694 1759 1744 1707 1704 1794 1889 1758 1757 1767 1767 1906 1950 2011 2072 2047 2068 2132 2194 2257 1950 1898 1865 1858 1889 1898 1834 2098 2194 2316 2377 2377 2444 2316 2307 2222 2326 2438 2255 2065 2010 1994 1910 1831 1828 1828 1828 1841 1862 1901 1931 1908 1930 2011 1958 1950 1957 2011 2011 2000 2036 2011 2051 2072 2255 2194 2194 2134 2072 2011 1983 1997 2015 2011 2047 2095 2102 2121 2225 2742 2434 2353 2505 2194 2445 2645 2631 2926 2621 2377 2255 2021 1950 1914 1914 2011 1914 1996 2072 2468 2864 3604 3105 2798 2804 3130 3310 2396 2261 2255 2255 2197 2125 2079 2101 2011
856 1355 1401 1335 1113 940 904 904 904 904 984 1306 1028 953 1047 934 934 1031 1144 701 701 701 952 896 920 614 21 862 560 883 705 786 884 1072 1263 1403 1237 973 973 1823 1237 1768 1646 1586 1583 1501 954 955 1258 673 673 673 851 750 1095 1483 1770 2011 1889 1888 2058 1950 1844 1828 1768 1725 1725 1728 1725 1725 1725 1725 1725 1733 1768 1798 1858 1889 1922 1943 1952 2016 2058 2074 2070 2064 2006 1954 1808 1584 1549 1549 1549 1549 1549 1549 1549 1549 1549 1676 1681 1645 1645 1694 1753 1813 1718 1669 1735 1769 1744 1722 1704 1810 1862 1927 1983 2011 2011 2011 2037 2061 2072 2004 2011 1920 1889 1907 1919 2072 2072 2071 2157 2244 2279 2377 2438 2316 2255 2255 2417 2438 2107 1984 1950 1911 1889 1859 1932 1865 1858 1889 1898 1950 2011 1992 2002 2011 1956 1963 1981 1987 2011 2044 2081 2137 2116 2075 2072 2054 2071 2217 2133 2133 2022 1950 1950 2010 2011 2000 1953 2031 2133 2685 2361 2349 2377 2194 2629 2920 2864 2438 2499 2438 2047 1950 1914 2038 1914 1980 1981 1998 2129 2438 3454 3151 2926 2722 3083 3352 2910 2761 2339 2286 2294 2145 2164 2086 2096 2042
828 1458 1588 1553 1064 1061 904 904 904 904 979 1408 1036 934 948 934 934 1069 857 743 701 701 839 1114 873 541 21 441 661 939 859 724 911 1037 1168 1212 1114 983 973 973 973 1584 1707 1660 1526 1524 1521 1463 914 1353 1164 961 750 750 1311 1158 1631 1861 1890 1850 2012 1928 1840 1828 1825 1730 1725 1725 1725 1725 1725 1725 1725 1731 1798 1798 1828 1885 1903 1972 1992 2050 2055 2072 2007 2006 1908 1889 1752 1592 1577 1549 1549 1549 1549 1549 1549 1549 1549 1549 1695 1644 1689 1730 1729 1707 1705 1645 1706 1707 1687 1693 1754 1826 1855 1950 1971 1890 2011 2024 2014 2024 2011 1950 2068 1983 2011 1938 2023 2011 2011 2059 2072 2150 2257 2376 2428 2377 2167 2097 2194 2309 2148 2011 1950 1909 1889 1888 1903 2010 2011 2068 2072 2113 2073 2041 2013 2015 2011 2075 2031 2041 2066 2072 2072 2156 2087 2072 2018 2035 2001 2011 2011 1999 1975 1947 1945 1980 1970 2011 1953 1987 2115 2499 2254 1950 2194 2230 2293 2797 2314 2219 2266 1981 1835 1889 2050 2046 1931 2006 2067 2104 2241 2557 2743 2681 2722 2762 3175 3178 3023 2953 2387 2281 2305 2102 2092 2067 2054 2035
742 810 1009 1038 1034 1103 1157 1069 904 904 904 1432 934 934 934 964 1465 1430 1011 860 715 802 1048 1231 1004 420 21 392 670 761 833 762 789 891 1166 1475 992 973 973 973 973 973 1214 1704 1630 1654 1585 1205 1524 1363 1463 1402 1072 1585 1483 1650 1768 2072 2011 1827 2067 1939 1889 1859 1865 1869 1889 1725 1725 1725 1725 1725 1725 1731 1736 1796 1798 1846 1891 1933 1963 2027 2010 2029 2019 1962 1889 1768 1707 1636 1587 1573 1563 1549 1549 1549 1549 1549 1549 1549 1569 1595 1683 1704 1706 1701 1627 1679 1683 1633 1643 1701 1757 1816 1823 1808 1865 1890 2011 2011 1952 2011 1959 1950 2011 2007 2027 1915 1942 2011 2011 2057 2106 2149 2255 2316 2377 2326 2077 2077 2190 2190 2179 2072 1979 1923 1913 2133 2194 2194 2194 2245 2254 2255 2133 2129 2181 2105 2072 2102 2038 2066 2065 2107 2145 2152 2133 2082 2047 2008 1993 2006 1993 1960 1948 1889 1950 1940 1947 1931 1893 1890 2046 2633 2351 1828 1949 1889 2277 2315 2165 1950 1856 1819 1705 1882 2012 2073 1950 2004 2070 2095 2250 2428 2438 2581 2407 2893 2986 3108 3098 2499 2377 2380 2255 2065 2052 2034 2056 2063
608 718 794 853 914 974 1016 1228 1376 1406 1156 975 1082 934 936 1430 1355 1767 1095 1307 1047 885 981 1130 1182 664 21 21 493 887 988 780 765 996 1001 1092 1118 1055 973 973 973 973 975 1390 1715 1565 1441 1535 1502 1463 1463 1448 1111 1585 1654 1646 1707 1739 1850 1702 1832 1949 1889 1889 1892 1935 1893 1828 1868 1725 1725 1725 1725 1754 1742 1769 1798 1798 1882 1883 1943 1976 2014 2011 2011 1919 1854 1767 1749 1669 1619 1591 1568 1549 1549 1549 1549 1549 1549 1549 1555 1549 1637 1649 1633 1582 1641 1614 1584 1605 1641 1706 1706 1766 1889 1790 1837 1886 1971 1926 1932 1957 1890 1950 1979 1950 2011 1889 2011 2071 2102 2133 2139 2194 2219 2257 2317 2194 2072 2072 2133 2172 2095 2094 2007 2067 2112 2182 2109 2194 2255 2194 2194 2194 2247 2255 2404 2327 2133 2097 2097 2127 2160 2175 2139 2128 2081 2097 2042 2041 2011 1993 2008 1950 1931 1869 1892 1955 1891 1899 1894 1818 1828 2077 1946 1767 1819 1884 2246 2173 2015 1952 1822 1642 1634 1759 2011 2044 1930 1966 2014 2106 2276 2559 2727 2487 2228 2619 2521 2682 3123 2425 2194 2290 2244 2031 2011 2055 2074 2133
554 699 1101 984 1073 991 1012 1149 1305 1576 1260 934 934 934 1069 1493 1508 1937 1488 1310 1086 931 947 1048 1326 640 21 21 359 933 1276 901 853 860 907 1009 1436 1033 973 973 973 973 973 973 1309 1719 1640 1585 1524 1442 1399 1223 1227 1644 1645 1704 1703 1672 1658 1702 2012 1924 1887 1889 1950 1957 1875 1828 1828 1767 1725 1725 1762 1773 1773 1803 1811 1853 1878 1896 1931 1955 1980 1994 1990 1885 1864 1873 1755 1713 1660 1645 1593 1549 1549 1549 1549 1549 1549 1549 1549 1549 1553 1639 1549 1610 1645 1584 1644 1653 1676 1668 1715 1767 1790 1793 1821 1885 1889 1889 1872 1881 1869 1937 1889 1889 1889 1940 1950 2060 2087 2102 2133 2154 2205 2278 2316 2194 2072 2109 2131 2072 2011 2007 2007 2104 2208 2083 2065 2142 2196 2194 2194 2194 2206 2316 2372 2364 2323 2261 2315 2194 2234 2162 2182 2127 2072 2072 2011 1993 1993 1993 2025 2153 2184 2056 1869 1869 1885 1908 1862 1785 1766 1767 1946 1685 1764 2133 1995 1891 1889 1743 1704 1634 1634 1672 1940 1947 1876 1950 2001 2067 2208 2267 2318 2258 2254 2228 2438 2560 2751 2314 2139 2075 2064 2032 2011 2042 2021 2062
672 930 1022 1149 1096 1036 1041 1274 1953 1782 1335 964 934 934 1035 1120 1457 1832 1492 1337 1216 1218 1038 1092 844 477 21 21 433 634 1123 915 853 859 896 1034 1496 1589 1009 973 973 973 973 973 1097 1140 1636 1829 1443 1383 1389 1462 1560 1530 1644 1660 1675 1638 1638 1661 1950 1846 1829 1789 1849 1886 1830 1843 1798 1768 1725 1767 1766 1786 1780 1800 1837 1889 1889 1948 1947 2059 2171 2055 2020 1966 1972 2086 2011 1891 1706 1645 1584 1549 1549 1549 1549 1549 1549 1549 1549 1549 1549 1549 1549 1549 1581 1643 1659 1645 1645 1668 1829 1883 1950 1945 1950 1950 1922 1888 1828 1825 1816 1843 1826 1910 1950 1999 2011 2069 2011 2133 2194 2236 2252 2271 2285 2292 2072 2052 2025 2043 2072 2007 2007 2014 2014 2016 2058 2133 2193 2224 2263 2283 2346 2316 2316 2255 2238 2316 2216 2316 2255 2184 2232 2194 2120 2073 2040 2003 1993 2070 2116 2396 2470 2399 2102 1869 1884 2205 1919 1825 1827 1712 1695 1685 1714 1766 1826 1887 1841 1835 1634 1634 1670 1674 1783 1949 1859 1889 1967 2034 2107 2194 2362 2343 2194 2302 2242 2316 2438 2438 2136 2090 2072 1950 1953 1989 2029 2052
932 1060 1115 1212 1218 1096 1106 1299 1324 1464 1396 1034 934 934 934 1023 1280 1419 1553 1272 1158 1117 1076 1016 627 450 21 21 271 550 1063 1086 911 956 1041 1241 1438 1618 1056 1077 973 973 973 973 997 1046 1657 1464 1402 1341 1402 1707 1646 1603 1610 1670 1700 1707 1638 1638 1711 1890 1776 1762 1816 1950 1934 1825 1768 1768 1754 1760 1784 1805 1828 1820 1828 1963 1966 2001 2136 2102 2118 2289 2211 2297 2173 2214 2052 1936 1841 1748 1676 1574 1549 1549 1549 1549 1549 1549 1549 1549 1549 1549 1549 1549 1549 1584 1608 1637 1648 1726 1806 1823 1999 1950 2010 1949 1865 1824 1889 1798 1810 1800 1889 1905 1981 1988 2011 2011 1977 2126 2171 2230 2226 2221 2194 2239 2158 2011 2001 2011 2007 2080 2011 2038 2072 2148 2072 2072 2072 2133 2137 2137 2483 2499 2380 2274 2230 2164 2206 2180 2254 2255 2387 2255 2143 2089 2065 2025 2184 2449 2493 2554 2455 2385 2032 1869 1869 2229 1897 1833 1859 1828 1766 1668 1642 1670 1767 1871 1834 1750 1634 1664 1701 1670 1741 1803 1938 1875 1957 2002 2063 2124 2154 2125 2228 2106 2072 2124 2133 2253 2255 2072 1967 2011 1849 1949 1886 1973
802 1074 1091 1176 1281 1161 1113 1156 1310 1759 1527 1290 934 934 934 934 1086 1524 1401 1216 1094 1006 969 1048 863 654 256 21 256 440 967 933 1026 999 1067 1242 1483 1819 1628 1332 1022 981 1097 1031 1038 1041 1340 1283 1294 1402 1402 1670 1639 1707 1679 1688 1701 1684 1646 1638 1638 1888 1790 1696 1736 1843 1889 1829 1770 1774 1707 1713 1768 1810 1829 1845 1891 2011 2037 2129 2130 2142 2255 2569 2438 2435 2387 2194 2063 2038 2040 1881 1677 1653 1602 1549 1549 1549 1549 1549 1549 1549 1554 1549 1549 1553 1554 1553 1584 1646 1853 1766 1801 1941 1941 1946 1950 1948 1815 1950 1881 1853 1784 1790 1877 1892 1937 1950 2011 2011 1950 1976 2163 2134 2188 2194 2140 2155 2011 2073 1988 2059 2011 2027 2072 2072 2112 2194 2388 2325 2315 2257 2255 2178 2194 2346 2453 2160 2255 2144 2132 2154 2360 2179 2248 2442 2459 2221 2189 2133 2499 2527 2559 2593 2460 2278 2256 1869 1896 2128 1840 1842 1846 1847 1821 1761 1673 1642 1642 1758 1687 1702 1634 1696 1767 1753 1706 1706 1765 1766 1828 1894 1919 1990 2130 2107 2194 2274 2011 2011 2011 1947 1996 2038 1981 1949 1992 1822 1770 1768
597 946 964 1155 1280 1278 1217 1218 1223 1319 1521 1145 934 934 979 1103 1418 1445 1558 1157 1033 979 915 964 881 753 580 21 21 413 583 928 1173 1160 1009 1087 1193 1632 1563 1315 1097 1034 981 981 1181 1161 1265 1209 1440 1463 1524 1623 1705 1767 1761 1677 1710 1646 1706 1646 1638 1890 1706 1646 1732 1828 2091 1827 1784 1707 1707 1768 1812 1816 1968 1889 1948 1984 2112 2163 2294 2240 2286 2403 2642 2458 2926 2762 2438 2263 2163 2206 1828 1856 1600 1549 1549 1549 1549 1549 1549 1549 1549 1580 1549 1549 1552 1574 1584 1584 1706 1735 1810 1793 1818 1864 1914 1828 1810 1783 1831 1829 1830 1767 1789 1883 1973 1980 1908 1939 1889 1950 2011 2152 2163 2164 2072 2149 2136 2011 1984 2089 2131 2133 2188 2195 2219 2255 2313 2377 2453 2416 2326 2358 2324 2269 2171 2133 2109 2102 2103 2194 2128 2289 2129 2175 2255 2215 2277 2194 2530 2620 2611 2553 2194 2106 2011 1950 1789 2087 1822 1794 1840 1980 1951 1868 1855 1663 1643 1586 1645 1634 1640 1634 1828 1887 1979 2042 1885 1828 1797 1828 1887 1950 2072 2072 2182 2255 2256 2193 1950 1889 1938 1950 1890 1848 2044 2011 1801 1767
419 617 749 1027 1193 1308 1281 1340 1450 1505 1693 1260 934 1022 1134 1265 1457 1585 1401 1554 1124 907 790 771 862 896 592 547 21 398 593 788 1167 1240 1062 1130 1047 1135 1315 1149 1090 981 981 1069 1276 1643 1166 1280 1465 1951 1646 1789 1849 1703 1693 1706 1646 1646 1810 1716 1757 1598 1604 1616 1682 1828 1826 1755 1707 1664 1697 1809 1865 1887 1950 1961 1978 2049 2070 2207 2682 2407 2331 2438 2377 2474 2663 3125 2487 2252 2065 2323 2160 1906 1743 1586 1549 1577 1549 1549 1549 1549 1549 1549 1549 1549 1569 1586 1606 1584 1643 1706 1820 1793 1898 1881 1914 1874 1734 1706 1751 1764 1767 1751 1771 1828 1795 1891 1858 1842 1858 1907 1969 1997 2062 1985 1916 2133 2142 2011 1950 2145 2133 2151 2174 2194 2210 2230 2255 2441 2405 2437 2565 2499 2370 2316 2316 2235 2193 2133 2069 2088 2090 2132 2134 2106 2173 2189 2531 2620 2617 2620 2535 2528 2072 2045 1974 1931 1828 1749 1727 1764 1828 1930 1890 1828 1783 1708 1645 1559 1634 1705 1842 1810 1734 1953 2133 2442 2019 1889 1889 1889 2011 1950 2159 2190 2164 2217 2209 2223 1937 1860 2111 2011 1879 1798 1767 1812 1822 1717
